ply
format ascii 1.0
element vertex 690
property double x
property double y
property double z
property uchar red
property uchar green
property uchar blue
end_header
-0.2289637273045134 0.0065563415325146 2.2685818956910415 251 202 143
0.2924111121987725 0.0095080438715612 2.2661011600816767 185 146 92
-0.1243759347964163 -0.1667164436665399 2.2652544325661510 122 83 41
-0.2340838117102366 -0.1768799440371569 2.2141391700433717 241 201 140
0.3842746415114541 0.0163577792854121 2.2298237283919091 116 92 53
0.4501337294235073 0.0117407713820580 2.2639041318190523 131 95 48
0.3913906926160302 -0.1711287799794485 2.1938964156055514 122 99 57
0.1950463977699899 0.0128390321414017 2.2689976121368023 255 215 149
0.3964806640177677 -0.1665151869950156 2.1935963944562165 167 136 85
0.3618995047690844 0.0166870018525573 2.2575092602519571 161 122 72
0.4768333725860111 -0.1589982455208354 2.1591306616357975 181 151 92
-0.0417025722683136 -0.1654712436616558 2.2596492262933334 255 235 167
-0.0894072432423839 0.0109597761645177 2.2918959907379590 231 184 120
0.3493843642450345 -0.1700117132546149 2.2394980489762570 168 135 75
-0.1874395135715335 0.0107892701085199 2.2952837312851497 255 224 155
0.3986159377487760 -0.1604316923293656 2.1925647780006652 141 110 62
0.2515225867122847 -0.1622444841631918 2.2543035242993104 225 187 127
0.4179748690265856 0.0184640791769598 2.2629463062377142 207 166 113
-0.2606865154741615 -0.1663656807978745 2.2186812361278090 236 195 138
-0.2606796473857991 -0.1661807833583784 2.2170000975337891 244 200 144
-0.1254366845902187 -0.1743355213932612 2.2680512026286839 255 237 163
0.2641591224912295 -0.1686863883095499 2.2452472286673757 149 113 60
0.2332479051213966 -0.1658554349868014 2.2533382254655403 238 198 130
0.3848125636122959 0.0236787417739074 2.2286760252118296 120 95 59
0.1402377969031823 0.0148142012921816 2.2908519370125844 254 210 141
0.0504808267594759 -0.1588848173280165 2.2631614052362301 255 217 141
0.1702666907903500 0.0170616249279478 2.2739623190473259 242 199 143
-0.2606944854258413 0.0234717733485233 2.2406940379989098 240 190 124
0.2643000035503164 -0.1562123123208197 2.2487402195360109 227 194 132
-0.0796000461003883 -0.1664280032799518 2.2650462106145470 251 211 146
-0.2607540639149809 0.0233825984617691 2.2395778075295381 242 189 126
0.3620559666126769 0.0246636310833573 2.2584031361915824 156 117 70
0.2641392586575244 -0.1562132320103904 2.2488895809261233 243 208 145
0.2645860499852823 0.0249204049325267 2.2725534447449034 209 171 123
0.2739116323542906 -0.1540585999397288 2.2455249717281447 157 126 68
-0.2316915355618120 -0.1552753555982557 2.2164791128388375 215 175 114
0.2281418231411197 -0.1617520618257023 2.2571199302419367 211 170 99
-0.2297302812001457 0.0232929187898154 2.2702201982062715 232 183 123
0.1818052736923558 0.0263316956611754 2.2728165857410989 253 214 153
0.2810301028383651 -0.1590329754338297 2.2443067574623980 233 202 141
0.1816437417553457 0.0263759575215113 2.2724860376592133 252 210 149
0.2158765421776008 -0.1538511822685710 2.2301026849765195 212 173 107
0.0415468126528104 -0.1559853262671434 2.2658639204691804 146 108 48
0.2420741590854666 0.0256459767259406 2.2818852311711897 128 86 37
0.3917000434814421 -0.1469573122763822 2.2004854807336640 117 97 51
0.1586349405765025 0.0259717514239013 2.2806392984720039 226 187 130
0.2578134230253163 -0.1576305257829967 2.2558578387930472 181 144 81
0.4367440621802773 -0.0875012567102729 2.2379622713600629 123 95 68
0.1754479021145488 0.0321810363073319 2.2725211897192197 209 167 108
0.0774220771660143 -0.1563398227403030 2.2652983843843604 255 255 190
0.2801522988763857 -0.0908250966912307 2.2557062749428565 217 179 117
0.2520937477539942 -0.1544093203202518 2.2567479394387040 220 182 124
-0.2890519238268865 -0.1398671926933284 2.1892721377950726 176 134 84
0.1825291691982766 -0.1510925604338760 2.2480698975412690 245 210 149
-0.2890470709212399 -0.1397865590960771 2.1893777356999053 178 134 82
0.0269002542105455 -0.1546583167409550 2.2680236041385080 230 192 132
-0.2602399734130778 -0.0857366705312425 2.2282530648741958 229 182 122
0.1189029144338204 -0.1538209287137320 2.2637806902554929 255 220 152
0.1319825513396413 -0.1530711340709550 2.2644837548787886 224 186 119
0.5083206979543994 0.0348052839203838 2.3118309885247474 6 0 0
0.3594678943796695 -0.1510989353522413 2.2463817235785308 189 157 104
0.2227760558418801 0.0387076031675401 2.2828489707986406 218 175 113
0.2444135652897783 -0.1515318079784040 2.2571025200881842 184 148 86
0.3421784137897168 0.0405850020741884 2.2691904162097942 181 139 80
0.2444420221338461 -0.1515532720557366 2.2574442746969412 192 157 96
0.3930967306513958 -0.1388408554861506 2.1989529300129411 131 106 55
0.4903095756380624 -0.1325539892708335 2.1664390584248050 173 142 85
0.2277352784680655 0.0434778012983524 2.2827092790943682 236 191 129
-0.0856052020093771 -0.1537355306011169 2.2641149179590707 255 229 165
-0.0923905989115946 -0.1499710240123150 2.2687797238236094 110 77 31
0.2404497802613654 -0.1473759600518428 2.2577635884289604 215 175 108
-0.2878053910248740 -0.1342082192879441 2.1898131751209973 235 191 125
0.4146675693843501 0.0471903281467070 2.2636535205935240 143 104 57
0.2643358133989406 -0.1432395405078005 2.2518703600447743 188 158 108
-0.0829795538002096 -0.1464553978531576 2.2701634064886025 201 172 128
0.2584568981051774 0.0497433586164892 2.2724065349955191 208 165 107
0.0708186339221226 -0.1508945883457168 2.2649519380818610 161 125 69
0.1869156305689946 -0.1404934586215051 2.2473925491542861 196 163 99
0.3748188770849278 -0.1440324912457738 2.2330268721498485 146 119 78
0.0344242200317722 -0.1440692548116812 2.2662895897988409 254 216 153
-0.2306579936446143 0.0514892906197957 2.2707025721841858 189 141 84
0.4285048599780433 -0.1333550899013227 2.2119795927222903 60 43 23
0.1404889188871016 0.0502296958602248 2.2922602965843679 163 130 91
-0.2227922451837169 -0.1478097026475050 2.2462346846923653 215 172 115
-0.2336519984164072 0.0564423245545059 2.2689642060431909 208 160 109
0.2595149077803431 -0.1387878390085133 2.2556826374077916 93 63 16
-0.2492373245416292 -0.1398855767219384 2.2200532176896957 216 168 104
0.1737903736814504 0.0571139504433492 2.2712664630030699 68 47 22
0.3987841106921263 -0.1271354232470083 2.2004754760714236 121 95 47
0.0982638825589546 -0.1484375724186568 2.2650014416808464 196 159 96
0.1761133833823692 -0.1364942320529844 2.2552034115000223 162 132 79
0.2334348606001302 -0.1387777259081134 2.2619923418011894 226 184 118
-0.0589427571028095 -0.1476566064881372 2.2660133005283174 210 168 116
0.3864394020945114 -0.1338947699506167 2.2010398002229499 109 91 51
0.2096282669665507 0.0583160355771169 2.2873229818450191 221 179 116
0.4040107480136509 -0.1225664075965190 2.2040681689941066 177 145 97
-0.2711724313286729 0.0700865827351707 2.2454004184197562 211 162 100
-0.0726376083025910 -0.1348510663367712 2.2789942639434422 191 162 117
-0.2569858015016165 0.0697252465685998 2.2465257573581519 226 176 108
0.1330126743007360 -0.1458168239181563 2.2638027215947392 193 153 94
0.2187354459547136 -0.1303497156490144 2.2636076607243809 191 152 86
0.3882378957171982 -0.1182040029399333 2.2062594537264046 108 87 48
0.1525780594442186 -0.1428676419122286 2.2622962177633861 142 107 55
-0.2782828283123058 -0.0784899387757777 2.1938788813515679 255 224 165
0.1306421610865279 0.0670194596456685 2.3119813850875772 118 98 69
-0.0054520028900183 -0.1436843664547940 2.2669969266663346 201 164 108
-0.2313422424900185 -0.1242227528096459 2.2500170902477286 252 211 153
0.2434233345315060 -0.1242677186601301 2.2609843911066525 193 153 83
0.2515949916364761 0.0787798279666602 2.2853594985389840 216 174 117
0.3844676477966287 -0.1140395508594883 2.2097059846103888 108 86 54
0.0056385939969003 -0.1424473052851700 2.2666484162501468 204 173 117
0.2395385919422743 -0.0890164903758383 2.2711843135008238 206 167 97
0.2444017828171502 0.0805039600394296 2.2830027365214134 232 189 128
0.0213439510807890 -0.1419772382363066 2.2676856307328865 227 192 140
0.4159683898490611 -0.0846029510434565 2.2503092238982862 137 102 50
0.2305992164145036 -0.1153142158160902 2.2636954444939104 205 166 99
-0.3100685926535994 -0.0940967115555865 2.1665933140398992 183 144 99
0.2764763162956158 -0.1083304750420636 2.2563907151103191 122 86 51
0.3591082314466746 -0.1356576162956611 2.2462995274983468 208 178 125
0.2844818228706535 -0.1080230277064554 2.2536199558785097 109 73 31
0.3892355387842514 -0.0994044775279990 2.2076108643743999 114 90 55
-0.2470401392922606 -0.1284974341530381 2.2213614942477680 219 173 106
-0.2432498829881693 -0.1014633509861504 2.2295341284373986 175 135 76
-0.2310899312111426 -0.1343262521227860 2.2582059720819943 209 171 113
0.2887190945139775 -0.1030411615273429 2.2536561990190047 193 157 104
-0.2554227514358580 -0.0933723402955501 2.2287547451226004 254 215 147
-0.2098161586805265 -0.1328458046340111 2.2507359134004847 187 144 85
-0.3229767826970680 -0.0789342530373971 2.1656301000741944 247 206 147
0.3748842201928901 -0.1273272845260845 2.2346337719673821 162 135 95
-0.3140814516047296 -0.2615846294859592 2.1462292588568097 242 207 143
-0.2969303118067912 -0.2670519782850845 2.1792090372324422 253 214 148
-0.3074727582620166 -0.2568603645236203 2.1477876801602265 255 234 170
0.4697047991344869 -0.0817558939272841 2.2048986309555940 83 59 25
-0.3075939436146876 -0.2565443398840962 2.1474565767483678 255 230 163
-0.3025161111558418 -0.2594068967761367 2.1682795173849208 237 202 140
0.5399962229240840 -0.0924619499311098 2.2640249497439742 140 104 55
0.5021144703263742 -0.0699102923840500 2.1711959837647745 149 126 86
-0.2185941674263588 -0.0860814056703896 2.2574566586654123 240 192 127
-0.2974345973263345 -0.2469531204908020 2.1794688917692180 255 228 167
0.4744765372704701 -0.0714039473823165 2.2053457355815729 81 57 29
0.2453042435227676 -0.0851159057162590 2.2711640403943472 214 176 114
-0.3128527379314580 -0.2371020004543216 2.1510499889421175 241 205 144
0.4267072764487934 -0.0781252252524223 2.2504743936881435 159 126 78
-0.2328641463060749 -0.0828267648181742 2.2550000189860251 203 162 107
0.3906130180029387 -0.0712403553667898 2.2244951741896206 122 99 59
-0.2733865190022512 -0.2417826539628653 2.1778767585693508 254 220 157
-0.2813859943694856 -0.2414487586156319 2.1793650767385664 255 218 151
0.2745927826386961 -0.0813289135791861 2.2610961957522440 162 128 71
0.3750868301200349 -0.0741875078024666 2.2475992730507999 168 138 99
-0.2469764384140636 -0.0722445203427202 2.2269838732533014 231 185 114
-0.3017544342465520 -0.2290562350204896 2.1671790776264408 246 212 148
0.2405063963936747 -0.0787504895466564 2.2729941008606658 212 171 103
-0.2137552696631816 -0.0769907618314178 2.2593603266462257 235 192 127
-0.3148997597786117 -0.2232659668233660 2.1506275166377598 248 213 150
0.3466459531403996 -0.0728165772428362 2.2610631278331343 132 102 51
0.3961671287511788 -0.0642807373658930 2.2130496626644276 182 152 104
-0.2585109870209544 -0.2328469682395351 2.2101379148431723 245 203 137
-0.2171565538169794 -0.0722074143398199 2.2591138033893134 170 124 67
-0.2302297102495526 -0.0674722805451446 2.2594480263853325 234 193 140
-0.2212360725541870 -0.0672790520525577 2.2595791179686171 229 184 124
-0.3191797982440423 -0.0456105039928008 2.1695832407771229 250 212 148
0.0306263873704458 -0.1345301242178864 2.2766570912123756 69 43 8
-0.3144507965686736 -0.2111052962899767 2.1534594440264669 245 209 148
-0.3192866211730601 -0.0457890539103555 2.1691316617555838 255 216 156
-0.2963267165952109 -0.2111359978401632 2.1848980431481784 252 209 144
-0.3064552663020232 -0.0442512300727462 2.1746663361762253 241 202 145
-0.2642068045572821 -0.2194292216182709 2.2180519267019947 245 205 138
-0.2146548814508236 -0.0563800414918970 2.2603350845213193 243 197 133
0.4842625398470681 -0.0449073954517794 2.2089063267737683 77 52 27
0.4242805960605029 -0.0525360031278667 2.2555733231743726 176 140 84
-0.2316056556751333 -0.0536339484796916 2.2581011014737795 208 169 114
-0.2675518607446802 -0.0475646916257713 2.2328839700414127 211 165 107
0.4521903391112095 -0.2040594102696929 2.1560804613376114 186 162 110
-0.2456570162766553 -0.0431370304270449 2.2336441974346206 241 197 135
-0.2348185533621376 -0.0474341472145480 2.2564858664636547 232 189 133
-0.2476220589949878 -0.2089608056897237 2.2097355594184016 244 197 135
0.2533488123440544 -0.0478812734178016 2.2753450861570363 229 190 132
0.4624810917610586 -0.1926524471942331 2.1540180633194486 169 143 84
0.3859305819736515 -0.0371446026367512 2.2342187634293267 108 84 47
0.2657632415967049 -0.0446276913057872 2.2725199332616035 230 191 140
-0.3053264686353071 -0.1892287394729663 2.1634526609981184 198 156 97
-0.3113955746536741 -0.0259103864146385 2.1711402086362894 255 231 171
-0.2764170769441249 -0.0356749569102505 2.2331920904723024 244 199 142
0.4142188724230790 -0.1923974649492710 2.1900554403406067 164 138 101
-0.3081006693599573 -0.1820166261910329 2.1583764254457183 255 239 171
0.2391807361386997 -0.0375829553317327 2.2773703632753586 213 169 102
-0.3083671082268787 -0.0215742756477336 2.1751133321705511 209 171 119
-0.3006964854494785 -0.0635930855676459 2.1957703905263379 255 221 160
-0.3083356955463277 -0.0213906545285442 2.1734317906334999 209 171 119
-0.2286372514386203 -0.0343278197947659 2.2642190588807547 201 155 97
0.3656563539540948 -0.0333045370369667 2.2658362965343803 134 99 48
0.3907439469900568 -0.1795964316722563 2.1933213179270465 120 100 59
-0.2572558815587351 -0.1849586617297322 2.2141243779040103 224 177 117
0.4460852523367508 -0.0307515984622291 2.2583747812524568 161 126 84
0.4918744282343596 -0.0225148434825611 2.2134577961030253 94 69 42
0.4453149564579060 -0.0668963991361337 2.2405020974451566 119 98 70
-0.2158718753391322 -0.1896252065769595 2.2400775395439276 227 182 120
-0.2485524975664073 -0.0274517435323566 2.2355204217214624 226 181 113
0.3675822345863640 -0.1874749440377749 2.2326803958545591 103 77 30
-0.2620101956056661 -0.0271469208494021 2.2353642642225018 255 214 150
0.3744383801835289 -0.0640522743235988 2.2481797440670488 167 136 95
0.4283987195993263 -0.0286426316324873 2.2588696966577957 170 131 79
-0.1794816726130375 -0.1113176931157996 1.8860531910726965 231 195 137
0.4705144376457537 -0.0571884615075510 2.2110281435378911 36 17 1
0.2276907736093061 -0.0299558277610125 2.2783452770904260 233 189 120
-0.2482833337024553 -0.1772598921540794 2.2162366935598325 236 192 127
-0.3015368409201912 -0.1685721025954268 2.1847629883576110 244 206 150
-0.2543006288992679 -0.1724492998058067 2.2161807612597872 195 153 98
0.2582121832229914 -0.0597652876549915 2.2663590380312924 176 140 83
-0.3180767091135396 -0.1598293503648348 2.1575568736396975 254 215 148
0.2728899378273709 -0.0584300791487495 2.2652290070853853 163 126 71
-0.2323652255580668 -0.1712424236791441 2.2351120047339497 196 154 99
0.3666300218614292 -0.0533982560311253 2.2573512104101559 133 96 48
-0.1339375658062504 -0.1749473746411404 2.2653193152524382 255 254 183
0.4413492319407313 -0.1191799426729472 2.2104677331176057 55 35 8
-0.2387795417753465 -0.0449594733786941 2.2264665614799601 197 153 97
0.2389982512551730 -0.1695108776954559 2.2536126791019675 220 182 117
0.4874786588498815 -0.0356573819807164 2.2109352313345894 77 52 26
0.4429015207823316 -0.0421657768573813 2.2564629895911761 142 109 69
0.2597081405497265 -0.0429057619893205 2.2760554482674746 167 128 75
0.3021917192296729 -0.1273760377788179 2.2625911369347604 185 148 94
-0.2127953938432436 -0.1254630754869046 2.2518447722034654 246 200 131
0.0173857394566668 -0.1711024781329996 2.2659450475191689 251 208 138
0.3295891755161202 -0.1258769883384551 2.2612099086692252 177 141 87
0.4216858198222371 -0.0311587294310257 2.2574921409051312 191 154 97
0.3492342382284335 -0.1626957910502440 2.2429225740743584 133 101 48
-0.1952577489205774 -0.0441868545013457 2.3269421095372924 216 184 140
0.3169411945741117 -0.0332350853589976 2.2721014833330280 219 179 119
0.3968976286366542 -0.0246117978626132 2.2187409663114592 128 95 50
-0.3199080054024800 -0.1443044236189093 2.1591149350477781 244 209 140
0.0953979441977234 -0.1646271194612633 2.2672060354015895 240 200 136
-0.2603925194494132 -0.1164250873320460 2.2273115081005597 198 154 95
0.1751579612590076 -0.1585461964749665 2.2526069946216905 210 173 110
0.1198088180888947 -0.1602417078953049 2.2659649200118639 184 139 79
0.3749805223379065 -0.1121861994367378 2.2390817070368794 148 120 81
0.2653960170165751 -0.0322201185439268 2.2754158370371669 202 163 109
0.1886119092011565 -0.1560826178708483 2.2465139776183416 210 177 113
-0.3115312453252953 -0.0153230032761384 2.1739668790441948 255 228 170
-0.2958578218138531 -0.0178763515456049 2.1985980968807666 255 217 153
-0.2692758768687951 -0.0238759765958972 2.2337836928241326 209 162 106
0.1552738763982557 -0.1577551116618976 2.2641964235910632 159 121 63
0.3671861435873796 -0.1524052106327902 2.2385107347227553 133 104 51
0.0349417188111261 -0.1557296184317578 2.2679999191837634 250 210 151
-0.2759358658086961 -0.1398332226102088 2.1918112121694393 177 136 84
0.2574976914416465 -0.1482453318745692 2.2517405863445337 135 100 46
0.2437881582955028 -0.0289824764258623 2.2777219329799214 234 190 121
0.1748132842707422 -0.1474883581115560 2.2525841704204401 200 164 105
0.2516647337348764 -0.1129895235300984 2.2652507317364639 205 166 97
0.2192571205290537 -0.1488423246772947 2.2592103619880288 208 169 105
0.3528612472720244 -0.1440770894845543 2.2467257112466403 106 74 32
0.2720668245152502 -0.0223109086649972 2.2662955619962011 102 70 26
0.3529120650719967 -0.1440993150839140 2.2467866088090638 106 74 32
0.4365033411325177 -0.1047765461799585 2.2334794079666174 42 21 2
0.4201137547987869 -0.0193902060186509 2.2567264350432681 194 158 109
-0.2653858640867183 -0.0174821592098124 2.2360304650950051 251 203 137
0.4228254771619020 -0.1057159339965874 2.2478695164715337 92 58 16
0.3008958222744379 -0.1082436663788884 2.2654559504915852 167 128 71
0.4500350623836595 -0.1326614603381329 2.1997168343048914 58 34 12
-0.2216687506035460 -0.1395454891415025 2.2476171221486356 221 177 116
-0.2731100132327015 -0.0114754639377353 2.2345187047561348 183 142 92
-0.2405770842268444 -0.0113227786338183 2.2374141298373509 172 132 84
0.2730482738589284 -0.1388332691906445 2.2534615838980017 96 69 23
-0.0883535863124033 -0.1419871990597503 2.2754306122952523 91 60 14
0.4269677745117558 -0.0098302265769255 2.2642018173795266 136 99 52
0.4230003519734348 -0.1296634809865558 2.2147275855257629 48 26 3
0.4869353130774549 -0.1197357685704185 2.1668448775244671 175 146 87
-0.2362576334428975 -0.0113919473865674 2.2641736857317065 221 178 133
0.2189944536131377 -0.1381064394801609 2.2605846495458786 238 197 129
0.4554491478598613 -0.0063277303496069 2.2605860565504390 153 120 81
0.4327250753885822 -0.0972683087710526 2.2384255822019412 130 101 72
0.2718883881643694 -0.0072455525546304 2.2774903868478811 134 99 52
0.2785166386846133 -0.1324157198444318 2.2499528460490548 203 175 131
0.5043749616826199 -0.0806053189574311 2.1681357249999991 102 77 36
0.4702550138199478 -0.0028215988064914 2.2467461146754393 120 95 72
0.2869181022691818 -0.1325196362317000 2.2486351533782605 215 184 129
0.4204334460934745 -0.1261218670977901 2.2327290736104679 142 114 78
0.0406212490043788 -0.1327623103927475 2.2775999080428542 61 36 8
-0.2075177977804564 -0.0073286638372064 2.2688157283620223 148 104 55
-0.3110394186084505 -0.1090528997494102 2.1599137578810144 252 218 157
-0.2080028936249452 -0.0072795058122565 2.2678598614903667 148 104 55
0.3280669792337613 -0.0023948653022922 2.2722570356370850 137 97 63
0.4284823467567662 -0.0918390335777731 2.2472751743667705 100 68 29
0.3862540165327072 0.0049657813071757 2.2302960806700423 116 90 55
0.2662738214948346 -0.0025370425224079 2.2721936047254823 234 196 147
-0.2914089032550424 -0.1069943481681999 2.1913341769173442 248 201 131
0.1384340566868025 -0.0058462489979503 2.3106434744643489 225 182 112
-0.2913309732338535 -0.1070877228227039 2.1919315719573103 252 207 139
0.2586376967196231 -0.0001097583835457 2.2742048464303144 143 104 58
0.3744666017465693 -0.0861990485554554 2.2419547589818141 166 135 96
0.2373612971249089 -0.1192043519874599 2.2646996967833291 220 178 110
-0.1430620282149687 -0.0033614447437076 2.2953433247199118 246 195 126
-0.1042814799243541 -0.0017598606257361 2.2965255303306273 237 187 121
0.3908952671918866 -0.1084189407091210 2.2090640838454565 113 91 57
0.1750039038663852 0.0015837495881751 2.2818835220807401 165 126 70
-0.3043722151262479 -0.0989533116912713 2.1667706647313572 255 220 158
0.4970690391207372 -0.0974026825666112 2.1699090271044605 171 140 81
0.3378471337891786 -0.1142108237823571 2.2657731493504842 164 131 80
0.4446110121504197 0.0058386505548297 2.2642427818609141 172 138 87
0.2674166041983992 -0.0835517489069535 2.2669710832775589 231 191 129
0.4275756748099729 -0.1091153118825867 2.2339713148373739 128 100 68
-0.0442755961942342 -0.0001314304320873 2.2971880079867084 255 209 140
0.2674804131183539 -0.0835525711780927 2.2670023300765059 231 191 129
0.4131736589812875 -0.1090467163340174 2.2459251970207657 186 153 102
0.2690302297886420 0.0055379454361455 2.2697692177837991 173 137 81
-0.2514573231709176 -0.1055554150738659 2.2259568365277813 231 186 119
0.2366731796780199 -0.1097526118100235 2.2683232148276518 203 162 99
-0.2813164354002466 -0.0653794112671213 2.2082865650435628 255 218 158
-0.2684999255371968 0.0113879838498062 2.2381706740274518 236 186 129
0.2735406348991400 -0.0731864091548958 2.2649690125619211 159 125 68
0.4015710407626582 0.0161922575832695 2.2166254817335491 188 152 96
-0.1845565109372558 0.0039867518786504 2.2954644480966477 142 92 36
-0.1937150279387220 0.0065587499508097 2.2837990029625654 255 213 146
0.2669397849184982 -0.0662724077506891 2.2658818903481994 216 178 118
0.4236920237551974 0.0133133784752275 2.2636796366289023 151 113 65
-0.2976188979190961 0.0217896438268399 2.2059788896902019 255 213 148
0.1449075737836804 0.0100642246193591 2.2926449302225023 227 181 116
0.1602438421749429 0.0140119863821017 2.2821146909412935 250 206 143
0.2223670221842745 0.0157609734292219 2.2817705176344272 238 194 129
0.1763566103088097 0.0193583045560969 2.2726117984519898 208 169 109
0.4370128710593295 -0.0539371773984381 2.2584616904795602 150 118 76
0.2697999421076464 0.0196101975847536 2.2708763495275797 180 140 82
0.2449743612611033 0.0192363723991248 2.2827235039548506 222 179 118
0.2369663823633649 -0.0473721576097268 2.2766783830007862 236 194 124
0.4254468267485040 0.0245420273132056 2.2664444897386122 106 72 26
0.4254888521163500 0.0245631247219698 2.2673093799729469 133 98 48
0.1647312507918413 0.0237892676244342 2.2733406108161520 211 172 115
0.1713883630185701 0.0260149651843532 2.2728388932585744 247 208 150
0.3438474878521945 -0.0391782776563456 2.2673192175931991 54 32 1
0.1218073517163961 0.0246121992269156 2.2877880638286183 184 141 85
0.4570407243712576 -0.0363866008274920 2.2435317068109590 134 112 82
0.3440913442077358 0.0293451819509394 2.2752462076233475 179 140 82
-0.2461618891208898 -0.0352153486329531 2.2371930516264662 255 213 143
0.3678783768418606 0.0335902618019450 2.2607619690967411 164 128 91
0.4508445275558938 -0.0365176041342257 2.2548126164461175 68 41 8
0.1453743425951369 0.0297742500369042 2.2829797565170957 166 126 77
0.3730307354563465 -0.0311810809901018 2.2539726806063149 181 148 107
0.2153000883934499 0.0351116771014469 2.2836025569959264 245 200 136
0.2612010366292156 0.0369914793185552 2.2761045899733645 198 162 107
0.3467966259030065 -0.0277954086336758 2.2684090382558137 80 49 14
0.3672488317924712 0.0425807224257096 2.2595331955521729 134 102 72
-0.2265628795909286 0.0395913217325050 2.2729380909107100 214 164 104
-0.2425307337795682 -0.0197591943672337 2.2392501692171254 255 230 170
0.3336213016012595 0.0438015597480298 2.2686570221376341 237 193 123
-0.2236176404871287 0.0469773690182470 2.2707761722019164 232 182 116
-0.2774325730421217 0.0517265569497547 2.2443273708429126 210 169 119
0.2635436507052777 -0.0203070640105956 2.2763521078025986 211 172 116
0.4653706989908177 -0.0149402664213212 2.2463442486863308 117 93 69
0.3732037966828468 -0.0149505163275320 2.2547953988855154 168 131 88
0.3448822439513680 -0.0141773094399319 2.2699314066011489 95 62 21
0.4227883664830169 0.0642289082674769 2.2644605701381404 122 88 41
-0.2127817375894424 -0.0138540218006944 2.2658921873667111 250 201 140
0.4227551301327421 0.0641085131692051 2.2642888428950969 122 88 41
-0.2395983168590422 0.0613627855819001 2.2745671896082906 184 143 91
0.3058883887194370 0.0625756344735363 2.2819402763116723 57 39 14
-0.2591571877321601 -0.0086154593636005 2.2386903868230155 221 172 111
-0.1972247430297371 0.0577112721977974 2.3319159487146179 93 73 57
0.3797677605944730 -0.0081458863600105 2.2536050548166902 83 55 17
0.3631234970819089 -0.0074719852991671 2.2652293444343843 136 98 49
0.1261416219533742 0.0615492738838114 2.3070926171725454 34 20 4
0.2286594460215781 -0.0081713387201313 2.2792384687207674 220 173 109
0.2745666899507126 0.0765187156750902 2.2751987110305594 49 29 11
0.1824212743270622 -0.0053853810226702 2.2703504627522380 253 214 154
0.3712208492242544 0.0000236131721498 2.2581586060822505 185 147 105
0.4573890881668487 0.0005451444382462 2.2594989057347625 157 124 82
-0.2990517352000954 0.2155706664499837 2.8379436192730090 30 26 23
0.4913303004369184 0.0042338930265845 2.2357904324702793 41 25 8
-0.3222286032108032 0.3037340059421200 2.1831985311809810 34 25 24
-0.1740201832963458 -0.0046985204847856 2.2948231718359762 229 175 111
0.2193573020664447 -0.0017030793032783 2.2811622616915099 243 197 131
-0.1524237430765487 -0.0036708985852008 2.2944962958678996 240 187 121
-0.1520808471752556 -0.0036676810794674 2.2944785353616126 236 181 122
-0.1218130533537325 -0.0020334914979488 2.2950983671957643 235 186 118
0.2320133725017634 0.0010380565772581 2.2798505507350995 237 191 124
0.3783436149058294 0.0046736163551339 2.2565348407211827 92 61 27
-0.3163380467929597 -0.2489144540151480 2.1484692422790830 248 211 147
-0.0587239044227413 -0.0013414308452384 2.2950437809773607 255 205 138
-0.2746807769058861 -0.2564370272250363 2.1805074203828356 255 223 152
0.3343341938002276 0.0050597402310348 2.2710410169220925 240 195 137
-0.3078762902754089 -0.2437842417478220 2.1509693915291175 255 236 172
0.0016045593072447 0.0001630588435231 2.2954839923046499 240 188 115
-0.2879078057289634 -0.2446358394278105 2.1773040117450861 248 204 137
-0.3075048496993439 -0.2302343437228042 2.1531260514132753 255 231 165
0.3635126065464206 0.0069133764768223 2.2598015924089707 144 105 56
0.4360475171591506 0.0083951054748731 2.2649987594534213 142 107 61
-0.2767956427636861 -0.2302258974010894 2.1802524047388419 255 230 163
0.0552286190202848 0.0042290204647464 2.2932045773295080 255 208 133
0.0942678609751398 0.0054669361859341 2.2937640483393924 226 175 112
0.3438690543551810 0.0106665198000602 2.2694468972334212 125 87 40
-0.3071172009862567 -0.2186170061155541 2.1537152482355610 255 240 176
0.3700646454776791 0.0161369787972442 2.2602903764559072 163 126 86
-0.2914851566487521 -0.2183169108518365 2.1819365418834145 234 190 136
0.0270406545688427 0.0114452340154844 2.2929017479303995 255 255 175
0.4319427492197092 0.0163880424180555 2.2658489500999375 179 141 89
-0.2876664435002707 -0.2028450753180550 2.1824520711676518 235 194 123
-0.3210043715161228 0.0285067592135693 2.1742809593982604 237 193 133
0.4307489875258945 -0.1925078325453738 2.1780373368725514 188 163 122
0.1262532338012835 0.0152126308836153 2.2894661656413984 255 245 175
-0.1595562387366053 0.0154611072010616 2.2892419727820226 158 112 68
-0.2688111220077857 -0.1917613694750156 2.2007845730068887 219 181 125
-0.1796377505134483 0.0156893577708500 2.2922123130775436 190 141 80
-0.2887140777699368 -0.1808256273348442 2.1830757313796845 243 198 132
0.2996085030752799 0.0216901578630531 2.2645610903876392 228 186 122
-0.1047008286166398 0.0172268901525017 2.2925884392229929 176 141 91
-0.1742271110513272 -0.1894163373666691 2.2707869766665700 134 93 50
0.2134693951610592 0.0189424910978016 2.2838457944312487 197 155 94
0.4466635329869665 0.0239431866004768 2.2584203765634476 111 79 33
0.0195178347230346 0.0181184717432302 2.2937893832216707 201 159 96
0.0027039466808081 0.0205731715550089 2.2924021967212149 212 171 114
0.2576907046113653 0.0284159597528866 2.2748344574008508 127 87 51
0.2576261064764432 0.0283920877577235 2.2750868333597132 92 58 20
0.1455312021236105 0.0290228445026578 2.2837143792094445 166 126 77
0.1458440233226568 0.0287120740200076 2.2871505135185779 176 132 81
0.4225911108255407 0.0350453418893874 2.2620426145691734 120 85 37
0.4225158670613100 0.0349609071590260 2.2617613072490284 113 80 33
0.2490225912815903 0.0314057871139540 2.2830611142957475 230 185 138
0.1089260231819988 0.0330815259947325 2.2897471516738199 255 217 149
-0.3170547587368118 0.0483904483457801 2.1797388166870397 123 83 46
-0.1980634810073022 0.0326522331171339 2.2944778810599726 73 44 23
0.4145771673937556 0.0389870858280255 2.2632585881252001 213 173 121
0.1332961186171090 0.0358603748780699 2.2865387225685079 254 217 157
0.2850351105057711 0.0391102445706016 2.2687388305230356 229 188 124
0.2639210084689146 0.0437387067276011 2.2780657809060152 79 46 11
0.2641811063467034 0.0437209079983804 2.2784465689587123 79 46 11
0.4924372872147743 0.0510419838179819 2.2686013148197479 19 6 2
0.1246327169647460 0.0502597274319836 2.2912972261154296 220 175 120
0.2001633614469245 0.0537072867234431 2.2771140437839739 252 209 147
0.3068000808144225 0.0550865707495968 2.2758262805745844 223 190 132
-0.2689693018343022 0.0577174305790580 2.2446438584357442 245 191 127
0.2179561582958968 0.0620461708498575 2.2848046514262248 255 232 168
0.2647084520627043 0.0643591785709533 2.2764895922483235 139 103 49
0.1186119809400232 0.0602021287631155 2.3072915158352472 40 25 9
-0.2254088056305165 0.0697274334952249 2.2752942087910450 180 128 72
0.2577896484161044 0.0728850155326722 2.2819889638131823 207 167 111
0.2143066633941735 0.0889458781691708 2.2924764710706143 81 60 32
0.2138766494690867 0.0961690732590301 2.3152928765404268 103 90 71
-0.3116664968625504 -0.4437129808355541 2.3431713338899338 42 35 30
0.2807803609824329 -0.0389536804885259 2.2636677381697785 225 190 134
-0.3493448391806752 -0.3268536591707050 2.1869009332800711 58 49 40
0.3560509243331501 -0.0351686325514270 2.2661796341688385 214 180 128
0.3350792369762104 -0.0299517798237061 2.2699801387349123 198 160 106
-0.3356329212296013 -0.2964580570489966 2.1528156619506560 77 56 28
0.4542985413252688 -0.0249504097964982 2.2595241857968720 60 31 5
-0.3253698400946252 -0.2804501472985393 2.1483007368743459 250 214 156
0.3548791233665565 -0.0170319552945591 2.2674529366294807 236 197 143
-0.2769100672717415 -0.2210950667592392 2.1794169111691026 186 145 90
-0.2767754051784859 -0.2205908858425833 2.1793611763220326 156 120 65
0.2804709980118818 -0.0145898923987606 2.2652066512346156 234 196 139
0.4937910790830333 -0.0006998416559814 2.2082948896064152 162 141 108
0.2130755092877658 -0.0097987175167873 2.2802418251505139 201 156 94
0.3535690713987063 0.0035455544055617 2.2658339310292477 223 183 130
0.4592816082036776 0.0104066173920275 2.2630956183738764 168 132 89
0.4118388427795034 -0.1812257583208157 2.2010409075603570 108 79 36
-0.1716862676908833 0.0056755221419185 2.2911707020454402 255 229 154
-0.2685812390729996 -0.1793057185651983 2.2053111637320262 194 158 106
0.4700023133375061 0.0153539360520198 2.2634012649178508 63 35 7
-0.3148252293109325 -0.1673374577036223 2.2246124529008409 255 232 168
0.2016811622496697 0.0162896853462565 2.2653460807045707 255 215 151
0.3571635250614568 -0.1670497366992930 2.2321651057141332 208 175 116
-0.2682343328683265 -0.1601510488332782 2.2147648250134884 177 141 94
-0.1971524128420952 0.0150735807058243 2.2890264902174651 118 83 45
-0.1864176677181431 -0.1585871182538812 2.2633077053252921 255 225 149
-0.0596215342837173 -0.1576902850247936 2.2632783455659444 133 99 60
-0.0381192826491769 -0.1562975688038295 2.2625589863248896 122 88 47
-0.1026784355718195 -0.1526577066523712 2.2647501891471666 255 220 154
0.0171266944341923 -0.1519280274658899 2.2629199522642036 127 91 46
0.3415228334587103 -0.1427274843651792 2.2491934723143148 213 177 116
0.3333067899769514 0.0223713002854716 2.2697620489240844 234 189 126
-0.2797484427943434 -0.1305080262295568 2.1883509615921488 252 212 147
-0.0169354100664602 -0.1441260049619694 2.2672044157556712 208 174 118
-0.2054768073002004 0.0249369703228338 2.2867213489360494 250 209 150
0.0261315721720692 0.0279185064831768 2.2930352222431014 255 224 160
0.0508646533184650 -0.1418385715445318 2.2673235001194767 252 212 139
0.4472923925414071 -0.1239433629339454 2.2021437405546092 166 140 106
0.4815690503085169 0.0347582893646144 2.2625969873693359 50 29 7
0.2980920779028655 0.0386286696516979 2.2667302577978496 240 196 127
0.3313646251789134 0.0402377412085614 2.2712150453474336 240 195 125
0.0194830403387739 0.0366767778568188 2.2977498595554882 115 74 25
0.2683336311646368 -0.1125618052641769 2.2649192014674253 209 174 123
0.3591272209337685 -0.1018726156990650 2.2591736256706159 207 175 122
-0.2838366500203461 -0.0990878702550244 2.2543938415364160 255 224 161
-0.2594802041265664 0.0505489881946654 2.2440461619671050 217 167 99
0.0084084455059181 0.0451777698060804 2.3025432507125507 214 173 119
-0.2958081866660963 0.0719616300276957 2.2157936842011141 215 168 106
0.2094931638225037 0.0786530114829601 2.2875377965135608 236 200 138
-0.3365001929273258 0.3344283792277256 2.1297975781246778 15 7 3
-0.3417359364095888 0.3435740111209937 2.4191463026264453 28 20 18
-0.3148681055949775 0.2214475358807228 2.4186777732655744 44 36 32
-0.3350361664654016 0.3569885143757852 2.1987616734400524 33 25 20
-0.3166667031829510 0.3055190879564578 2.1732854121630591 32 23 21
-0.3274125591477072 0.3155340045685224 2.1702067713821269 42 34 31
-0.3206654500769942 0.3470863317164474 2.4968317629524162 35 26 27
0.3579944670774053 -0.0843138969914492 2.2566493277985273 220 186 129
0.3481180945353699 -0.0737553253328354 2.2622988893037594 169 132 79
0.4286085436238580 -0.0703151373285127 2.2562911644213850 161 127 83
0.3259170578024613 -0.0660533875719460 2.2627880368012936 226 193 131
-0.3293448042554091 -0.0487207702441687 2.1677808544452701 255 236 176
0.4333119196209985 -0.2220221513165825 2.1643478720286482 158 130 76
0.3582266915321322 -0.0557607638034410 2.2591881623100729 208 171 117
0.4753874886209845 -0.0475206327531295 2.2089235069331918 157 131 94
0.4237567484367921 -0.2137944449944648 2.1772069702656629 237 209 149
0.3496387173346302 -0.0567816560135514 2.2717127475710477 177 140 82
-0.2956957713333629 -0.0354708161939571 2.1978759702299007 253 209 146
0.4377802931554646 -0.2075332472828792 2.1652468378007588 137 115 64
0.4121914431410047 -0.2114193499673953 2.1864102520163806 84 59 15
-0.3083060831756081 -0.2017016539681494 2.1559859198302340 251 218 156
-0.2774546125270042 -0.2067902305058118 2.1854094075228367 254 222 154
0.4501769593222320 -0.1940418074878916 2.1551799158131826 223 201 147
0.4407239604405158 -0.1879478044854956 2.1703439135225269 74 58 23
-0.2784158865337837 -0.1714403721647738 2.1901110778942989 255 222 163
-0.2798795348116494 -0.1523545244423588 2.1893103035008630 251 209 140
-0.2799482451540107 -0.1524374966589978 2.1901776843804135 251 209 140
-0.1878185760399896 -0.1487449707132264 2.2720776576119466 90 60 34
-0.2017159254764977 -0.1422877907371414 2.2519688349274434 229 193 137
0.3475030794976776 -0.1306536442499423 2.2516103824664602 76 49 19
0.3982074184320524 -0.1164959532085929 2.2051019780278232 209 178 121
-0.1896175517654816 -0.1312367392277116 2.2937228207046974 85 55 31
0.2989838279953616 -0.1220241962443919 2.2568525947474276 165 130 77
-0.2903066708123498 -0.2571780826798945 2.1882092495412211 241 196 126
0.4313980867733657 -0.2585337473615777 2.2082922473704549 199 171 102
-0.3270637140900345 -0.2042995203124569 2.1600560518277701 254 222 160
-0.2201640745826055 -0.2019287822834288 2.2469820563838123 220 176 113
-0.3138127902829692 -0.1017713087339421 2.1607018185915554 214 170 118
-0.2425595914633785 -0.1122694402067124 2.2254417722323767 249 203 137
0.3062546619621747 -0.1003994473395434 2.2672555674937191 172 132 75
0.3236845796961575 -0.1005207291266064 2.2649914263468958 176 137 76
0.3395122620426577 -0.1778088708419761 2.2513467081842871 213 177 109
0.3830347512606973 -0.1690610193873286 2.2142670234923192 77 56 26
0.3968216818602137 -0.1448355439639760 2.1723043954191636 186 156 102
0.2874359569820013 -0.1457576303184772 2.2535187014360063 218 185 120
0.2848221910585452 -0.0683702834643187 2.2611337284618926 227 192 132
-0.2700754548622535 -0.0594466218649904 2.2354178300025613 242 198 140
-0.2407457409919140 -0.0600059827813963 2.2367060047895326 255 212 148
0.5103819756710080 -0.0358973309228029 2.1770512997839964 134 114 73
0.3933645643395066 -0.0145409494844920 2.2194604591746430 168 139 93
0.2002742076096422 -0.0167382730835811 2.2750358545865677 254 242 177
0.0454660186061311 -0.0211328154099505 2.3204842600940978 20 7 2
-0.1047684379717101 -0.0161241479358627 2.3033885950411204 255 223 146
0.3436799712040671 -0.0040740011889163 2.2707355488598182 88 56 23
0.2818032973135312 0.0041838777527183 2.2657902620131565 217 177 117
-0.2758310338045871 0.0087733474850247 2.2399591083537862 217 172 123
0.3054151739069295 -0.1738984941474282 2.5214418495137609 42 23 8
-0.2399605969510507 -0.0874577931048353 2.2360226375801138 253 208 140
-0.2588527389785863 -0.0692132498177077 2.2377458212399541 231 184 122
-0.3284346115618892 0.0362707636903316 2.1810421804756901 243 199 140
0.4589208198196889 0.0280112248808901 2.2635507966751924 172 135 86
0.4075843816112089 0.0391887177856336 2.2584955746274749 216 179 125
-0.2864303364280056 0.0564801830953265 2.2099349343074430 255 222 166
-0.2353979664255396 0.0498037475032808 2.2726942560887218 205 159 106
0.4578656533062979 0.0516862306333277 2.2699710883035196 185 155 108
-0.1985883442228595 0.0518326666615760 2.3124375702703288 86 64 49
0.1836633647687895 0.0626059128797807 2.2704041114692246 237 204 144
0.2764991501780984 0.0648577579093658 2.2718630799135147 227 189 133
0.1318654254578073 0.0715943710224192 2.3178543693962603 160 122 87
-0.2100596502340713 -0.0562187985079849 2.2645139507285759 240 199 133
0.2828450130855193 -0.0476255416482466 2.2651595950525367 235 197 135
0.2220210257550526 -0.0408673364335321 2.2767826568799783 250 212 155
0.4441307834949388 -0.0153981562926891 2.2661840183457111 174 135 82
-0.2289260573624737 -0.0160616110835227 2.2658915283410925 189 141 95
0.4826801339470219 0.0019674085108322 2.2299218702178991 46 29 7
0.1904218488822147 0.0757600012012713 2.2834693584447092 21 11 3
0.4338618210303029 0.0739149139167112 2.2783332113387429 191 161 123
-0.3185581675998317 0.1306616939028422 2.2256597852814122 20 14 13
-0.3168044503872534 0.2433778789597324 2.4455713159875714 44 36 31
0.2396312499174284 0.0003658128465150 2.2847349009200415 232 187 124
-0.2105375326032101 0.0091103856687333 2.2742390857831549 246 199 138
-0.2122139953761318 0.0228956761219997 2.2943273516775506 236 193 137
-0.2304039167811946 0.0326311671682323 2.2714180586032162 213 167 111
-0.3233934907920589 0.0618840452156728 2.1760010045769884 244 207 144
0.3199669993709021 0.0614005036352973 2.2793218224177418 236 197 129
0.4482315940820418 0.0651906316590775 2.2732616302258664 19 5 0
-0.3328833674455156 0.1207188564818242 2.1864237251781682 47 37 31
-0.3194466906369173 0.3354272462537276 2.6620583031696787 47 39 35
0.4215860520014997 -0.1466695336006325 2.2246475889328932 56 36 15
0.1803380519558141 -0.1135215622436766 2.2682130660788342 51 31 11
-0.3250496529054712 -0.0819850605257387 2.1646463704603773 255 221 161
0.2940027774141544 -0.0866983721163244 2.2628717955604749 243 200 128
-0.2787391079169685 -0.0721693466243903 2.1998779997735909 255 218 154
0.3817268441837958 -0.0340665433676642 2.2328734257963565 62 38 5
-0.3213328545511004 -0.0770367963185846 2.1587062726060724 240 203 138
-0.2822854500190522 -0.0256819062289789 2.2035427936670100 255 222 158
0.5250033269902480 -0.0258180470327778 2.1966275558780239 130 115 84
0.3961174750497906 0.0215303377628634 2.2231745238403393 217 182 130
-0.3071715896938356 0.1889566514419576 2.3844877654685228 22 17 13
-0.2661688160484176 -0.0079225158500768 2.2322747305841437 229 179 122
0.3850212265084045 0.0426928121856675 2.2423229993501006 34 19 4
0.4784280552714670 0.0502724378706173 2.2687370157383522 168 139 95
-0.3317016190417212 -0.3294555059041378 2.0356751441191947 53 45 36
0.4500813897032218 -0.0649467502198899 2.2339342552192165 52 34 14
0.4164196043983416 0.0617346597730164 2.2764363554445786 193 155 103
0.3028724526839894 0.0830555500863608 2.3246521877548263 7 1 0
0.4347685844109619 -0.2221255693120043 2.1709857599855265 151 127 69
0.4356071802636136 0.0336780568886099 2.2837563172162332 197 160 108
0.3242499836984925 0.0327647826272238 2.2669312417817138 232 186 118
-0.1603102551810432 0.0907032573351424 2.3403319956781403 3 2 0
0.2156114943977808 0.0329197698313369 2.2942809539109277 235 188 126
-0.2620156925693646 -0.1132497739835604 2.3798460280133669 207 163 96
-0.3138166941739002 -0.2775321092159668 2.1469877485164854 255 221 161
0.0768235016043958 -0.1246713638305129 2.2807727079940960 205 179 129
-0.1536589586646895 -0.0171652638495388 2.3044047067933251 255 216 146
-0.3121237581228262 -0.2681885547530397 2.1481573450016156 255 223 160
0.5030909230773137 -0.0099848222166166 2.2085893113226458 65 51 37
0.2163631865021588 -0.1192233099195291 2.2688839710733197 209 170 104
0.3856013276024028 -0.0089863806704700 2.2181275486855752 123 97 59
-0.2496033724951099 -0.2412940542494209 2.2066214511630640 228 187 114
-0.0749112893370877 -0.0108441544431300 2.3046151863077706 247 202 129
-0.0747426062392623 -0.0109549094737382 2.3106661978445189 247 202 129
0.4354776968679417 -0.0032015517626492 2.2616483201527844 143 109 59
-0.2374172471946882 -0.2194025624586425 2.2084832569126354 223 181 110
0.4194399939128060 -0.1823623367789652 2.1897057418608470 148 123 86
-0.2717949580125655 -0.2154645253445069 2.1894383386589156 197 159 96
-0.2885083700038050 -0.2051148001085457 2.1825020240346991 248 204 138
-0.3263354878140385 -0.2008139134829235 2.4298040106532710 241 202 143
0.1189455031283216 0.1348891966053082 3.4303424808742813 255 247 171
0.1683609840422703 -0.1798865743165335 2.2825695217115118 231 200 138
0.2055180705944326 -0.1790912359326908 2.2510123435471390 255 223 148
0.5429148099265493 -0.1006171697329503 2.2694177513799421 161 131 87
-0.2947360394284739 -0.0476481867949115 2.1976232518337637 253 207 146
0.2742013771329672 -0.0987292669897699 2.2629684263651666 98 66 17
-0.0724299002816743 -0.1758856423321052 2.2667041362370304 255 224 151
0.3051089003744945 -0.0974898082810241 2.2677183451995471 179 136 78
0.1891407573871608 -0.1717742328217522 2.2545713612788494 242 207 138
0.1420229037838243 -0.1717763815884127 2.2763622825852496 210 167 108
0.1461206618680495 0.0185878171690623 2.2854700085054365 208 163 101
0.2903718666243244 -0.1677453988164141 2.2436106178986122 231 194 125
0.1141415095338443 -0.1672781392230850 2.2688218771748820 255 217 147
0.2146382929880077 0.0211809905265042 2.2857558949426120 203 157 89
-0.2490745877464409 -0.0879145522796120 2.2281767498230143 243 195 124
0.2738614231895616 -0.1616951845663206 2.2465402629126605 157 125 69
0.2163985644461978 -0.1613611270386128 2.2388000294561752 236 197 128
-0.2228815085819252 0.0231985014818901 2.2702430163122060 246 195 129
0.3498545565532338 -0.0805847803126173 2.2631299633026090 171 140 83
0.1213395290876414 0.0247355608562778 2.2888037290849312 190 143 83
0.3738948139052384 -0.1632092035782385 2.2241118590484925 164 135 92
0.3840453244054133 -0.1510748414453021 2.2008613620503690 98 76 41
0.1620072634043050 -0.1543722212524154 2.2642355431131844 227 191 133
-0.2354524945457033 -0.1620380063080487 2.2145038048454122 240 200 134
0.2088844810663915 0.0412786470137209 2.2868659345674462 225 184 118
0.2398274453817570 -0.1405309713769453 2.2574796483182857 205 163 100
-0.2901434347530956 0.0432721444734933 2.2045479667045975 245 199 137
-0.2306880208850076 0.0450359984110701 2.2734184308942158 220 170 113
0.2266806890711617 -0.1408261768315941 2.2603270773530997 215 174 106
-0.2638268413480552 -0.0531801184625251 2.2316381307820219 240 195 134
-0.2259740357282768 0.0469924274112516 2.3104543659851422 232 182 116
0.2593387584759430 -0.1388932816398781 2.2563822873137300 93 63 16
0.3609981415900776 0.0516089665724568 2.2719627142696788 137 99 57
0.2431858142734865 0.0555279923991278 2.2848873925465991 201 161 100
-0.2480216374146509 -0.1540461746874469 2.2188627217260981 215 173 112
-0.2522050771148383 -0.1340417462430712 2.2213409659029231 218 172 108
0.4085411556201630 0.0566436016562323 2.2698879044275513 177 141 84
0.2816465591106999 -0.1154743198062041 2.2742933331760917 113 79 47
-0.2228639754387912 -0.1105682536472633 2.2540839483871551 196 151 91
0.3182620039447077 -0.1096550356329624 2.2650106679926667 187 149 93
-0.2730366302541944 -0.0296413716120227 2.2323655716105706 255 223 162
0.3638990807239573 -0.0249124652480050 2.2672392168486919 105 73 30
0.3432981022260172 -0.1076870630383936 2.2656536161756291 166 136 90
0.2109380881785365 -0.1053314673168758 2.2700478516897533 239 200 129
0.3948210730747401 -0.1025206929071664 2.2071370657284386 174 145 98
0.3338670756051972 -0.1031551782111549 2.2681375259007317 149 112 58
0.4224805368258326 -0.0884322978639487 2.2460871494719536 152 118 76
0.3848106363738390 -0.0814096089966945 2.2189026357276060 95 71 38
0.4136306598474316 -0.0160429855927139 2.2589221621713134 145 110 61
-0.2708310820236721 -0.0815120339560883 2.2256998227944407 219 180 124
-0.2350640638491268 -0.0728758236899992 2.2580576485800194 205 169 111
-0.2265075159880402 -0.0726885148238602 2.2597254551901091 179 139 91
0.4419381171162066 -0.2496811680062286 2.1803391401191559 163 137 95
0.4693309436933585 -0.0518361320327293 2.2167606675927809 121 100 61
0.4376893448901309 -0.2418170341659797 2.1730268630737983 150 122 64
0.4953530729215065 -0.0138633983880065 2.2113312034844372 71 48 25
0.3131356901720060 -0.0149438353872353 2.2755246854877278 213 171 109
0.1469613224181809 -0.1349497624866026 2.2681892085223017 228 195 135
0.4115128475766724 -0.2287472337161227 2.1852875233133706 205 174 114
-0.2731912977765527 -0.0114620471355707 2.2370058598097389 213 170 122
-0.2406671343430641 -0.0111585250799962 2.2396259877986133 208 163 114
0.2589306584415008 -0.0353852512771054 2.2766494221825400 211 167 111
0.3941380444701363 -0.0324813212078791 2.2200993812529002 120 94 50
0.2341543241961780 -0.0332948895152426 2.2786550327614319 240 196 127
-0.2970516981750757 -0.1305947510933287 2.1926380612998972 255 212 151
-0.2740136887301698 -0.2096814854181046 2.1822773473122621 255 229 165
-0.2972172869328859 -0.2040436941815860 2.1793719466296535 251 212 149
-0.0323224866369500 -0.1307953287746167 2.2787691228268221 224 194 140
0.0000876003032494 -0.1285673224990388 2.2809769427784312 197 161 103
0.0000267063625019 -0.1285552537311690 2.2799430331015675 197 161 103
-0.0816110195248309 -0.0076110225384289 2.3018927740916260 255 246 170
-0.2008953296841919 -0.1275702520579698 2.2850286003810072 229 196 147
-0.2316709266660394 -0.0063428019556010 2.2678816878639849 205 161 110
-0.1895724742504077 -0.0062648375894643 2.2952918521849410 205 154 91
0.4168698922673329 -0.1182198053792232 2.2418931190030995 82 52 12
0.2930110960544052 -0.1182809704369246 2.2536473409987381 185 147 100
-0.0138385326146679 -0.1215588760772763 2.3037021273352805 82 55 23
-0.1558650635071991 -0.1827623667234395 2.2650978734605260 255 215 137
