ply
format ascii 1.0
element vertex 692
property double x
property double y
property double z
property uchar red
property uchar green
property uchar blue
end_header
0.1102996090919605 -0.1361653690347484 2.2280390708452971 255 220 152
0.1232739627372274 -0.1354074669324740 2.2288576313223776 224 186 119
0.1310984386676718 0.0313986451575532 2.2530078799200570 254 210 141
0.2348434099285144 -0.1336874733979201 2.2214112367833159 184 148 86
0.0335894432330608 -0.1384461499789990 2.2301109882932972 146 108 48
0.1609360043278177 0.0334896207603126 2.2363656424654796 242 199 143
0.2348686176684077 -0.1337014034341157 2.2216910605484217 192 157 96
0.3825117342870253 -0.1213614146464740 2.1632424963351884 131 106 55
-0.2666527128368728 0.0387650639630272 2.2027586707644131 240 190 124
0.4789268492066971 -0.1150163013662430 2.1294361042523646 173 142 85
0.0691605074086880 -0.1387398404322515 2.2295394995209885 255 255 190
-0.0993231893000849 -0.1327802779740822 2.2332840178708899 110 77 31
-0.2944843379655170 -0.1239319995586446 2.1529476385088104 176 134 84
0.2308965640734975 -0.1295741291099038 2.2221389902528759 215 175 108
0.4156688959241003 -0.0603599429745730 2.2138617576145765 159 126 78
-0.2944820030066552 -0.1238872177341237 2.1529930336193153 178 134 82
-0.2932230213880954 -0.1182957321263328 2.1532571965092440 235 191 125
0.3798415246720980 -0.0540065048477784 2.1878445944636424 122 99 59
0.2546184162118361 -0.1254972174039744 2.2162860205292194 188 158 108
0.3490734166344546 -0.1330306869593201 2.2106711796158711 189 157 104
-0.0899894977738567 -0.1292604055463554 2.2346328509105802 201 172 128
-0.2666940078440998 0.0386644562867704 2.2012099067781663 242 189 126
0.1777662304707147 -0.1230026313408233 2.2115095973587797 196 163 99
0.3512886910121712 0.0415025390800146 2.2207331430967976 156 117 70
0.0265077136471591 -0.1266567994831483 2.2303629351012311 254 216 153
0.2545025146167380 0.0415746652483885 2.2347439115336276 209 171 123
-0.0925190384308099 -0.1364932766481590 2.2281753766501624 255 229 165
0.4175748855320580 -0.1155687036963460 2.1757510429860418 60 43 23
-0.2359371010989635 0.0389778745722814 2.2319673227289445 232 183 123
0.1723406480479313 0.0427071294238892 2.2348904122289008 253 214 153
0.2498199517692450 -0.1210563669761985 2.2200954177086323 93 63 16
0.1721922078727466 0.0427619516783563 2.2344575832216660 252 210 149
0.0625979068568079 -0.1333585998829082 2.2292370074093246 161 125 69
-0.3061740518869762 -0.0482010869627708 2.1585870562628693 255 221 160
0.2321341090647357 0.0423192812178078 2.2441151859664408 128 86 37
0.3880618174092028 -0.1096200094776066 2.1639745494584255 121 95 47
0.3643400335919803 -0.1261639177289544 2.1974579326642187 146 119 78
0.1670227257848126 -0.1189615283245180 2.2193336395579921 162 132 79
0.1493460571214341 0.0423846778206151 2.2427322530216407 226 187 130
0.2239081120158436 -0.1210084692705975 2.2260736502415668 226 184 118
0.1660317789443175 0.0484808620242501 2.2346461624436222 209 167 108
-0.2287154132213161 -0.1310436465764044 2.2100612272318192 215 172 115
-0.3213890905825805 -0.2249839718641126 2.7977864067675053 185 159 108
0.3932986882936446 -0.1051127367232452 2.1681172060198315 177 145 97
-0.2549702762127503 -0.1235377298248276 2.1837958611509167 216 168 104
-0.0797652679953901 -0.1176420777831070 2.2434501424846474 191 162 117
0.0898213276749444 -0.1308682959019843 2.2291798151317290 196 159 96
0.4341327611672043 -0.0492704740078803 2.2038178168848663 119 98 70
0.4963597184174434 0.0527313129325172 2.2744645327459669 6 0 0
0.2093068111481247 -0.1126809800398642 2.2277488291508085 191 152 86
0.2129841699676812 0.0552527324843190 2.2449125966381862 218 175 113
0.3776273562675910 -0.1008130381615311 2.1702442453075399 108 87 48
-0.0660778290454570 -0.1303972422147323 2.2300185842613702 210 168 116
0.3314636614019612 0.0573590631240543 2.2309526598315901 181 139 80
0.3637502499489715 -0.0466162745001053 2.2114013047140766 167 136 95
0.4590243993049575 -0.0398180424976443 2.1733563867022840 36 17 1
0.3758581573788068 -0.1164359874783564 2.1651085073166212 109 91 51
-0.2372424902777475 -0.1076148637348836 2.2135873698117510 252 211 153
0.2337932788164607 -0.1066046856071136 2.2249256438939837 193 153 83
0.1242755694792706 -0.1282072274404611 2.2279559879198629 193 153 94
0.3553410737283009 -0.0427809238180783 2.2100363655461126 117 84 36
0.3738417590859725 -0.0966410768075887 2.1735403258287085 108 86 54
0.2178722172738322 0.0599911354283580 2.2445720642702107 236 191 129
0.4033791071558677 0.0641231301667814 2.2252876048574493 143 104 57
0.1436776506265474 -0.1252628777325338 2.2263893610702761 142 107 55
0.2483613063611793 0.0661880601201958 2.2341198238008930 208 165 107
-0.0130463760765745 -0.1263495661557034 2.2311061362442253 201 164 108
0.2483510889926609 -0.0425217557540707 2.2295946640681050 176 140 83
0.2210443445347449 -0.0977297732469842 2.2274895738782687 205 166 99
-0.0020462936372335 -0.1251042514892217 2.2307295545381689 204 173 117
-0.3154097370948656 -0.0788282220659317 2.1298523382289711 183 144 99
0.0135255621395799 -0.1245947063435443 2.2317633824598007 227 192 140
0.2665818112986265 -0.0907754019111237 2.2202872495542123 122 86 51
0.2745287642008366 -0.0904676876603906 2.2173911556730954 109 73 31
-0.2490745859601791 -0.0852742928637552 2.1925306624160208 175 135 76
0.3486885535960825 -0.1177256787022598 2.2103788621796046 208 178 125
0.2629157619576119 -0.0411730186123552 2.2284286530681858 163 126 71
0.2787302417730647 -0.0855200771746608 2.2174522250614817 193 157 104
-0.2528026896730100 -0.1122257042376053 2.1849874218586027 219 173 106
-0.2611870102807494 -0.0773042389937379 2.1920028952715849 254 215 147
0.3559436729403686 -0.0359576262911950 2.2203954603661149 133 96 48
-0.2370602965292850 -0.1175525008231681 2.2219918302778892 209 171 113
-0.2369713074733175 0.0669435408392597 2.2324034258700323 189 141 84
-0.2158659621488763 -0.1161276473877122 2.2143886863739612 187 144 85
-0.2447079244165702 -0.0292988365728170 2.1889317967369912 197 153 97
0.4759293070545397 -0.0184723471591550 2.1739444503137477 77 52 26
-0.3282521745404643 -0.0638053505734765 2.1287183443405637 247 206 147
0.1312853438693987 0.0665157535305946 2.2543376143303973 163 130 91
0.3643312823758584 -0.1095388220371769 2.1985875259077710 162 135 95
0.4316767590261540 -0.0245428427627955 2.2195008871703354 142 109 69
-0.2399516040177526 0.0718381562415948 2.2305918649775829 208 160 109
0.1643549969972964 0.0732079794115187 2.2331424409817591 68 47 22
0.4583886660804712 -0.0643585482553562 2.1682689844405352 83 59 25
0.1998719293144214 0.0746959594431688 2.2491768406491461 221 179 116
-0.2771597718725329 0.0850948238017689 2.2065472329594602 211 162 100
0.5282413140502774 -0.0740491476685134 2.2279868688226419 140 104 55
-0.2630648265537154 0.0847505008094936 2.2080443068897382 226 176 108
0.4904325516211867 -0.0527541297846137 2.1331950639748216 149 126 86
-0.2246355028072825 -0.0696778630061513 2.2206610965961469 240 192 127
0.4105914088615070 -0.0136881840490564 2.2204031256950301 191 154 97
0.2355782479784299 -0.0676489923889144 2.2346525845833169 214 176 114
-0.2018430512044025 -0.0273807169955870 2.2909817561805488 216 184 140
0.1214562918027750 0.0833758101958690 2.2741709684398570 118 98 69
-0.2388364163340942 -0.0664894070306030 2.2179930001143697 203 162 107
0.0227004021195374 -0.1170879638767572 2.2407322155285496 69 43 8
0.3065864574976953 -0.0159507113781689 2.2349531391968616 219 179 119
0.2415267373679197 0.0951530472964576 2.2470986798131674 216 174 117
0.3859821269828084 -0.0077632074645601 2.1813624141226997 128 95 50
0.2646452784047387 -0.0639291004290870 2.2245080867725520 162 128 71
0.4303302521184024 -0.1015170569500208 2.1743783834115322 55 35 8
0.2343360131988250 0.0968006238800339 2.2442345575905325 232 189 128
-0.2528397156874576 -0.0563697607810399 2.1899791601788210 231 185 114
0.2554102228888367 -0.0150740353678314 2.2382645267753714 202 163 109
0.0981494449103215 0.0925579812400294 2.2908163224059117 9 3 0
-0.3169764746759567 -0.0005876995850084 2.1361967309901160 255 228 170
-0.3014436013583514 -0.0028080668092469 2.1610039600406332 255 217 153
0.2307951198511645 -0.0613179658451222 2.2364057713390371 212 171 103
-0.2198749794995545 -0.0606208332684521 2.2223401255172606 235 192 127
-0.2750679318981491 -0.0083104564419056 2.1963025691169360 209 162 106
0.2339428259588947 -0.0119024005486332 2.2404691835207435 234 190 121
0.3361483100098693 -0.0552564295617614 2.2244421212383458 132 102 51
0.2921429687955029 -0.1094970227083220 2.2265840886027357 185 148 94
0.3853581454219571 -0.0471934313895470 2.1763098733920359 182 152 104
0.2620110751163913 -0.0053354219822489 2.2289486559616738 102 70 26
-0.2188179477249767 -0.1088016138218824 2.2154685905907754 246 200 131
-0.2232551356957132 -0.0559019388773960 2.2221495887397649 170 124 67
0.4089731969955326 -0.0020259617167332 2.2193379291298396 194 158 109
-0.2362329459090579 -0.0512119757020361 2.2224277111273669 234 193 140
-0.2712315870407910 -0.0019372124618368 2.1983714269351773 251 203 137
-0.2272979184162673 -0.0510110493304475 2.2225657720181284 229 184 124
-0.3247127728267667 -0.0307115526369396 2.1329981409955421 255 221 158
-0.3246136232495178 -0.0309231511072685 2.1315842708040083 255 216 156
-0.3117198361300833 -0.0291510547352389 2.1360013223127128 241 202 145
-0.2207752038515095 -0.0401806507210922 2.2232267476170264 243 197 133
-0.2788958008897471 0.0040313850834521 2.1963738029204460 183 142 92
0.4188035062095918 -0.0360554803558929 2.2199324702236733 149 114 63
0.4727595884263291 -0.0276996725836657 2.1719603405376975 77 52 27
0.4131861109001604 -0.0349186445923533 2.2186911835813707 176 140 84
-0.2376809515167313 -0.0375182939645826 2.2209711694704843 208 169 114
-0.2733271878378176 -0.0318196271601388 2.1956553717081069 211 165 107
-0.2465772906717743 0.0042167980713643 2.1995165286199096 172 132 84
-0.2515622574032825 -0.0273942412621474 2.1961137365562333 241 197 135
-0.2395279310150807 -0.0297332454556178 2.2021335585870885 245 200 142
0.2434700653401402 -0.0306469401985020 2.2383580860428376 229 190 132
0.3751208196980556 -0.0200457739991694 2.1972220170179937 108 84 47
0.2558011676289296 -0.0274155174001172 2.2355140300946053 230 191 140
-0.3191821831630794 -0.2451860759917645 2.1112414422910026 242 207 143
0.4157634123257157 0.0075772691402828 2.2267862100704319 136 99 52
-0.3167708977928723 -0.0111109528147617 2.1332272003893760 255 231 171
-0.2821365979371775 -0.0200367624040299 2.1958067597808872 244 199 142
-0.3020838993888958 -0.2500926644282623 2.1438049791421072 253 214 148
-0.3126240061203547 -0.2404776596769480 2.1127599676874671 255 234 170
-0.2423891983678251 0.0044627135339352 2.2265166422462488 221 178 133
-0.3126707167019993 -0.2402003493818668 2.1123639237302871 255 230 163
0.4440502034170126 0.0111225811493393 2.2232426305802426 153 120 81
-0.3077044329634604 -0.2427519453492071 2.1333393724245306 237 202 140
0.2293813168005994 -0.0204539791910537 2.2402515451439209 213 169 102
-0.3136563533347894 -0.0066566199143642 2.1361854893129646 209 171 119
0.2617991936521174 0.0097511542595370 2.2400267480612324 134 99 52
-0.3137916621945959 -0.0066128893199522 2.1357421581006810 209 171 119
0.4587166009630289 0.0144828907946745 2.2092570846569677 120 95 72
-0.3026993557628550 -0.2302575077989909 2.1443120270281422 255 228 167
-0.2347307714643295 -0.0182647535874753 2.2266435835227996 201 155 97
0.3549282631427265 -0.0159279965923506 2.2286927830801870 134 99 48
-0.3179636718525227 -0.2208478442752830 2.1158138758899341 241 205 144
0.4348109595583755 -0.0131801424820437 2.2212886924583679 161 126 84
0.4802588285167316 -0.0053933312864866 2.1762599707183599 94 69 42
-0.2544859821443707 -0.0118249018212886 2.1979950563116954 226 181 113
-0.2787930665323255 -0.2251298802939813 2.1427414403709397 254 220 157
-0.2867489905545851 -0.2248113901045847 2.1441855634139850 255 218 151
-0.2138562754818201 0.0085604363651153 2.2312759759867102 148 104 55
-0.2678477402817653 -0.0115311868051814 2.1978945706493453 255 214 150
-0.2142785024027700 0.0086216953056126 2.2302774706917599 148 104 55
-0.3068375062784552 -0.2125083547758090 2.1309590444813176 246 212 148
0.3175903970712760 0.0146951801857316 2.2348596853499711 137 97 63
0.2179777660675183 -0.0129117628732950 2.2411845058531661 233 189 120
0.3753566715988360 0.0216946248354412 2.1928447551934314 116 90 55
-0.3200356239149277 -0.2071343358788370 2.1152327086855052 248 213 150
0.2562424061381622 0.0143383820596058 2.2347942118605797 234 196 147
0.3193456878227167 -0.1079392782923866 2.2251552955949769 177 141 87
-0.2640573358143556 -0.2158234878568003 2.1747019958182907 245 203 137
-0.3196046958477043 -0.1950407008782000 2.1179301348178892 245 209 148
-0.3015352267105642 -0.1945599036209946 2.1486941261848038 252 209 144
0.1293639485248296 0.0111482112914327 2.2732244677803002 225 182 112
0.2486567493035003 0.0167463888867415 2.2367800757926304 143 104 58
-0.2697688982183930 -0.2024590668426058 2.1826577648673005 245 205 138
-0.1498226985717835 0.0129070729022725 2.2577319290431905 246 195 126
-0.1113248774822898 0.0145546529859823 2.2589579729696463 237 187 121
0.4413518128067402 -0.1863749725346524 2.1209851841000877 186 162 110
0.1656494335961168 0.0182621201948883 2.2444364151078950 165 126 70
-0.2660844140688901 -0.1001522528170206 2.1904350650234945 198 154 95
-0.2532687346392886 -0.1921652310485980 2.1742356122647934 244 197 135
0.4332391130205381 0.0231965908176581 2.2266625722865911 172 138 87
0.4515703655396514 -0.1750503068256928 2.1187801606526122 169 143 84
-0.0518035580626778 0.0162590486552949 2.2596414505254279 255 209 140
-0.3105169884755120 -0.1731993401882373 2.1275523042002948 198 156 97
0.4035657339669376 -0.1745107388275122 2.1548222934401906 164 138 101
0.2589656783913181 0.0223284506493307 2.2322808155553360 173 137 81
-0.3133345893173291 -0.1661282658568118 2.1225556571372297 255 239 171
-0.2743672322810519 0.0267466385385023 2.1999646849824073 236 186 129
0.3905110409002928 0.0327225842083546 2.1786434220191064 188 152 96
-0.1910738984969889 0.0201660949544778 2.2575203813778431 142 92 36
0.3802221713962149 -0.1618505017804473 2.1579425585741059 120 100 59
-0.2002144709091968 0.0225259478845422 2.2462125378076010 255 213 146
-0.2628848171568802 -0.1683307919509376 2.1783412524485870 224 177 117
0.4124612253330978 0.0305273965617376 2.2260065120328707 151 113 65
-0.2217845236205989 -0.1725791385739156 2.2043833466682758 227 182 120
0.3572465691619643 -0.1692893426421922 2.1976934358073095 103 77 30
-0.3032802614750519 0.0366508199047604 2.1680627199734399 255 213 148
0.1357714847016379 0.0267225759315696 2.2550937819164565 227 181 116
0.1509620815168503 0.0305456919460312 2.2443617140989796 250 206 143
0.2125884754692017 0.0324665506161609 2.2439001401454788 238 194 129
-0.2539618914217193 -0.1606424187184519 2.1803843571151398 236 192 127
0.1669681674335028 0.0357814153207604 2.2349855874549442 208 169 109
-0.3068589074163874 -0.1524668428186013 2.1487690550714116 244 206 150
0.2597046997481978 0.0363079625045202 2.2332372511402561 180 140 82
-0.2599701305605646 -0.1558842597186358 2.1802593438187876 195 153 98
-0.3232274887325748 -0.1441372451727125 2.1214652236505818 254 215 148
0.2350168645971999 0.0359993549224813 2.2448136020581253 222 179 118
0.3643998360058414 -0.0944771713226213 2.2028847467316370 148 120 81
-0.2382250629632975 -0.1544434606047232 2.1993043368291110 196 154 99
0.4141568480169563 0.0417123117850509 2.2285167785157212 106 72 26
-0.1404644889652979 -0.1575889918525579 2.2295204038452554 255 254 183
0.4142444854286194 0.0417510308125504 2.2296334694267661 133 98 48
0.2294987096629531 -0.1515704524623477 2.2180394179337188 220 182 117
0.1554267889104602 0.0401512025209881 2.2356628770122513 211 172 115
0.0096505443306570 -0.1534918528054866 2.2302638760650253 251 208 138
0.1620278469959678 0.0423729469459770 2.2351408909187751 247 208 150
0.3389469297362668 -0.1446193253482304 2.2073234876060304 133 101 48
0.2419473695053159 -0.0953455274581263 2.2290595471567842 205 166 97
0.1128091048174157 0.0410290828358984 2.2498463587637181 184 141 85
0.3334372633430572 0.0462886028600437 2.2375009008054372 179 140 82
-0.3250350462245675 -0.1287535061295690 2.1226064159955040 244 209 140
0.3827318729029774 -0.1026476670439850 2.2829927611685430 58 35 1
0.0869996314948843 -0.1468972137509332 2.2315120461762805 240 200 136
0.4254686891017908 -0.0869733867625788 2.1972032678950315 42 21 2
0.3570484566339290 0.0504118392550147 2.2229857423361050 164 128 91
0.4118847487455747 -0.0877717607578999 2.2116420739041844 92 58 16
0.1361825077350817 0.0461283442900456 2.2452065308770672 166 126 77
0.1661180161273569 -0.1408700755615102 2.2169074523786021 210 173 110
0.1112029251143576 -0.1425139762404938 2.2302297431807472 184 139 79
0.2908117356607224 -0.0904916738601178 2.2293466339382086 167 128 71
0.1794675894657118 -0.1384695672916997 2.2108059810165215 210 177 113
0.2055762748115005 0.0516670129765351 2.2457939354754757 245 200 136
0.1463801319147159 -0.1399898663264436 2.2284602089191865 159 121 63
0.2511182225607088 0.0535853595295373 2.2381583235214784 198 162 107
0.3567523935061642 -0.1344063812014180 2.2027977796431379 133 104 51
0.0270385335330442 -0.1381929693610892 2.2321930397626861 250 210 151
0.3563668117571536 0.0593084224355986 2.2213592067574925 134 102 72
-0.2814553873646875 -0.1238572616737710 2.1554977940171951 177 136 84
0.2478213797151989 -0.1304551830441421 2.2159456657754140 135 100 46
0.4217040724849547 -0.0794775649351215 2.2020840165246152 130 101 72
-0.2328342885052341 0.0551803940380630 2.2347419429855933 214 164 104
0.1657643101080240 -0.1299090815353149 2.2167693879425876 200 164 105
0.2098729535378336 -0.1310748329537874 2.2236238118706209 208 169 105
0.4927164495685994 -0.0633927147648076 2.1302775043742894 102 77 36
0.3425083757912005 -0.1260950858586309 2.2109701496493992 106 74 32
0.3229921540173070 0.0605117391004867 2.2303675443665520 237 193 123
0.3425495028998162 -0.1261046294449610 2.2109952807699624 106 74 32
-0.2299657034066812 0.0624684018470850 2.2325469705103638 232 182 116
-0.2833540763958683 0.0668451586467703 2.2059200971151256 210 169 119
0.4390309885244142 -0.1150221252639334 2.1639417627982880 58 34 12
-0.2276564402083110 -0.1228248773890963 2.2113434842588608 221 177 116
0.2632501468327068 -0.1210776982473705 2.2177797918249729 96 69 23
0.4174663582299135 -0.0739983308649498 2.2108364146793069 100 68 29
-0.0953023897755651 -0.1247128664669479 2.2394144217118406 91 60 14
0.4114782607115407 0.0810790227988550 2.2263735875065098 122 88 41
0.4120862490406021 -0.1118843237417322 2.1783746161058022 48 26 3
0.4114501874744952 0.0809328550841231 2.2261726142780693 122 88 41
0.4756212305698101 -0.1024496296818161 2.1307968403894622 175 146 87
-0.2457973691730741 0.0768111923604330 2.2362641827360945 184 143 91
0.2095879862164357 -0.1204308563145178 2.2249684999472876 238 197 129
0.3638365417676998 -0.0686636507007665 2.2054804841265665 166 135 96
0.2953953690319233 0.0792100747152216 2.2434350854362339 57 39 14
-0.2040080993567814 0.0738307382931095 2.2947538667820444 93 73 57
0.2686579712138449 -0.1147191121927454 2.2139881879452310 203 175 131
0.2770018229185359 -0.1148146544190541 2.2126570738323244 215 184 129
0.1170065008938375 0.0778817859998044 2.2691999591588345 34 20 4
0.4095666070096419 -0.1082192877264812 2.1967106042419524 142 114 78
0.0326125938990329 -0.1152992000442635 2.2416006373774406 61 36 8
0.2642952493795531 0.0928474651640568 2.2365742527859216 49 29 11
-0.3162754181840797 -0.0937263272909194 2.1230234474510072 252 218 157
-0.2967623715043361 -0.0911921196470891 2.1537252661975992 248 201 131
-0.2967790592740964 -0.0913881620258350 2.1552660790125806 252 207 139
0.2575246909943762 -0.0660835914045141 2.2304204150675155 231 191 129
0.2277648412157718 -0.1015539933088665 2.2285689264691944 220 178 110
0.2575929153437339 -0.0660835631406101 2.2304803685190908 231 191 129
-0.3097196436435621 -0.0836382819311396 2.1299398382074552 255 220 158
0.4856280338483558 -0.0802158507133758 2.1336009153326545 171 140 81
0.3275173402240881 -0.0962841096051039 2.2295865236210886 164 131 80
0.4166126682805148 -0.0913060130590676 2.1977307080580690 128 100 68
0.4023026758821058 -0.0911574798298090 2.2098821018285681 186 153 102
-0.2572214216012697 -0.0894072796302713 2.1891853541578650 231 186 119
0.2270564011148501 -0.0921401247340636 2.2320921677293759 203 162 99
0.2635902892077083 -0.0558096743200119 2.2283320274951048 159 125 68
-0.3280518682998632 0.3161368946930265 2.1431346449470712 34 25 24
-0.3075072697307494 -0.4941003352187738 2.3918348220184682 29 27 23
0.2570246983768265 -0.0489589295428099 2.2291844626661006 216 178 118
0.4258028532278974 -0.0362247566979566 2.2215946619537883 150 118 76
-0.3214379087036215 -0.2325955419807400 2.1133471690693990 248 211 147
0.2272271620722223 -0.0301746001885632 2.2397508850990659 236 194 124
-0.2799909305941011 -0.2395303058460596 2.1449925982704521 255 223 152
0.3332961449688338 -0.0218120114996901 2.2301686386636663 54 32 1
-0.3130404802793211 -0.2274721416525981 2.1158015666110712 255 236 172
-0.2932161277145197 -0.2279789674582423 2.1421827547119321 248 204 137
0.4456714678087979 -0.0189144453254103 2.2063390674909242 134 112 82
-0.2520881014139041 -0.0195025832803939 2.1998633254628737 255 213 143
-0.3126175137089544 -0.2139914599171325 2.1177012206325969 255 231 165
0.4395333239304116 -0.0189409987631660 2.2177428071409793 68 41 8
0.3622935312299098 -0.0139340011505961 2.2168875642120738 181 148 107
-0.2822114370666446 -0.2136436625272090 2.1449455375231574 255 230 163
0.3362092990888676 -0.0104924083317915 2.2311494458256944 80 49 14
-0.3123010219365004 -0.2024715212059735 2.1182798793359852 255 240 176
-0.2968183386123638 -0.2018467402181411 2.1464219566926643 234 190 136
0.2535608172265582 -0.0032486937005797 2.2391370060094191 211 172 116
-0.2930252149184127 -0.1864704291537062 2.1468436128681208 235 194 123
0.4539205538670332 0.0024366280437409 2.2090964654214531 117 93 69
0.3624169062789447 0.0021796118912420 2.2174458429087225 168 131 88
0.4199880965596166 -0.1747123207761669 2.1428066668561487 188 163 122
0.3342904228526578 0.0030303057846638 2.2325697559758746 95 62 21
-0.2189952339206805 0.0020716396181243 2.2283672277258657 250 201 140
-0.2742781873689181 -0.1751629141241163 2.1645775942132008 219 181 125
-0.2650519445907023 0.0068984792912742 2.2010288275701075 221 172 111
0.3689345597016891 0.0089437251235450 2.2162658761225233 83 55 17
-0.2941103495524683 -0.1646307964840217 2.1472222622680346 243 198 132
0.3523537254557174 0.0096957052516819 2.2276522454669681 136 98 49
0.2189107985438845 0.0087138711414046 2.2418916613938720 220 173 109
-0.1804732807161885 -0.1719269280179089 2.2350436176846613 134 93 50
0.1730287091205721 0.0112282126964252 2.2329919102485727 253 214 154
0.3604325618987728 0.0170761618427588 2.2207324442018721 185 147 105
0.4459252969965586 0.0179258919933004 2.2218846075970973 157 124 82
0.4795451794165398 0.0214685558923693 2.1977111844589974 41 25 8
-0.1805426151805038 0.0115445013268013 2.2572082590813736 229 175 111
0.2096662662403769 0.0151252186362062 2.2437460720575562 243 197 131
-0.1591012664219355 0.0125797665765952 2.2568954774275616 240 187 121
-0.1588086557672073 0.0126177409915564 2.2566440145129172 236 181 122
-0.1287207741614241 0.0142452325070201 2.2575210548953475 235 186 118
0.2222235936844238 0.0178684184378164 2.2424085146986754 237 191 124
0.3674755970993733 0.0216928562658293 2.2189509873038569 92 61 27
-0.0661575557580665 0.0150105475278951 2.2574417260353363 255 205 138
0.3237983109334097 0.0220987412053815 2.2335563393082820 240 195 137
-0.0063668285259042 0.0165532956232033 2.2584414704916758 240 188 115
0.3527671756837628 0.0239065805104673 2.2223068087437188 144 105 56
0.4247591962385248 0.0257148072317613 2.2274927276425611 142 107 61
0.0468521116451419 0.0207222726345554 2.2556928609533675 255 208 133
0.0855209033247712 0.0219985160522732 2.2565786605304634 226 175 112
0.3332547112307261 0.0276780850117884 2.2319048115212707 125 87 40
0.3592522415663502 0.0330899356608309 2.2226920849064102 163 126 86
0.0188922828878656 0.0278160232958318 2.2553068091105679 255 255 175
0.4206671105400672 0.0336424269842818 2.2282550809086588 179 141 89
-0.3264113533304239 0.0428720821837839 2.1357321952422277 237 193 133
0.1172631685822677 0.0317395021349861 2.2518646513843090 255 245 175
-0.1663183277193054 0.0314438420967127 2.2517234622646489 158 112 68
-0.1861618398535030 0.0317410359717752 2.2544279213298188 190 141 80
0.2892716581308369 0.0383947165827090 2.2267047325401266 228 186 122
-0.1118115207571157 0.0333401476817453 2.2545672889289450 176 141 91
0.2037514784207325 0.0356206380059765 2.2459512928296892 197 155 94
0.4352037343827485 0.0411000671857749 2.2204713172220729 111 79 33
0.0114206259278319 0.0344306386053544 2.2561240130196434 201 159 96
-0.0052537425083239 0.0368154016924490 2.2547020750737827 212 171 114
0.2476497864116383 0.0450475182204880 2.2369811656465370 127 87 51
0.2475821529916940 0.0450297128851429 2.2371132561345926 92 58 20
0.1363384174690744 0.0453913374731685 2.2459681495293524 166 126 77
0.1366729179287111 0.0451535221689923 2.2494086673005835 176 132 81
0.4113200934798263 0.0520715203953384 2.2241229469332513 120 85 37
0.4112356256443845 0.0519763851250519 2.2236688085017371 113 80 33
0.2390530256345403 0.0480950920020260 2.2452966034755835 230 185 138
0.1000349606005571 0.0494150933234692 2.2518513151028139 255 217 149
-0.3225892404789020 0.0627091680210450 2.1412764354209313 123 83 46
-0.2046343440010932 0.0485319520357101 2.2568451479968537 73 44 23
0.4033822702410588 0.0559723545510286 2.2254101489424203 213 173 121
0.1241891496566696 0.0521964721052875 2.2485227954270486 254 217 157
0.2747651947080353 0.0556790886439002 2.2306345246185666 229 188 124
0.2537783111737808 0.0603176839038313 2.2397632296138936 79 46 11
0.2540450778941129 0.0603001846735939 2.2402635148567196 79 46 11
0.4805839486881144 0.0682929008508028 2.2304810816206699 19 6 2
0.1155591317922897 0.0664908692036889 2.2533538800864452 220 175 120
0.1904999967991821 0.0699873183218173 2.2387842246827572 252 209 147
0.2963495577535069 0.0717032726027366 2.2376838122154625 223 190 132
-0.2749350901973892 0.0728063022968614 2.2063709973743690 245 191 127
0.2081413315635148 0.0784274071456550 2.2462896038791627 255 232 168
0.2545527272406829 0.0807655926517038 2.2382522413982353 139 103 49
0.1095584804868321 0.0765671799733213 2.2690216375505883 40 25 9
-0.2317359869803519 0.0851239961088080 2.2368406860672394 180 128 72
0.2476391023840016 0.0892724204198622 2.2433460568094015 207 167 111
0.2044568870811541 0.1051750300488059 2.2539869457264854 81 60 32
0.2039935243585262 0.1126109430652132 2.2771173133886484 103 90 71
-0.3542074146906964 -0.3094713516965016 2.1526927539958711 58 49 40
-0.3404084480703096 -0.2795494400088099 2.1174511716090145 77 56 28
-0.3303815302826953 -0.2638758098179702 2.1134935934421959 250 214 156
-0.2823313436726837 -0.2046010760725540 2.1440032727297345 186 145 90
-0.2822145981335268 -0.2041229667274448 2.1438827315220346 156 120 65
0.4011722006306424 -0.1633009812062667 2.1656788423188758 108 79 36
-0.2740765583233037 -0.1627606220005585 2.1689820923473753 194 158 106
-0.3201149313151176 -0.1507212749192645 2.1882709237654629 255 232 168
0.3468284470335366 -0.1490473990197434 2.1966244358033631 208 175 116
-0.2738196585404731 -0.1437198175591725 2.1787217412242592 177 141 94
-0.1926046448905626 -0.1414730706449558 2.2272809516080780 255 225 149
-0.0667516288761495 -0.1403817405898299 2.2275030021252014 133 99 60
-0.0454177012417161 -0.1389682808642879 2.2267640508100843 122 88 47
-0.1094622488213695 -0.1354473266784070 2.2287684251290178 255 220 154
0.0093665949215510 -0.1345242154435127 2.2270423908054036 127 91 46
0.3312393289545258 -0.1247623442922215 2.2133365092405350 213 177 116
-0.2852475019137062 -0.1146544028434017 2.1519058002183429 252 212 147
-0.0244312054255824 -0.1268050181557420 2.2312913548086928 208 174 118
0.0427928448966189 -0.1244578610717479 2.2318450440227249 252 212 139
0.4362420372479829 -0.1063343355041034 2.1661238468930955 166 140 106
0.2584977432583225 -0.0948772956776185 2.2287077861597702 209 174 123
0.3486310223721270 -0.0840548655393173 2.2228599568540068 207 175 122
-0.3421471689617015 0.3458821093832347 2.0888847940766615 15 7 3
-0.3486029751185754 0.3588504818813721 2.3812271428849510 28 20 18
-0.3408822579375706 0.3691508114740154 2.1574215504073231 33 25 20
0.4016014433119057 -0.1934317089665085 2.1514078360101347 84 59 15
-0.3133110782877819 -0.1854870764263201 2.1191696650062486 251 218 156
-0.2828566171790984 -0.1903295595543124 2.1497786470512583 254 222 154
0.4393007284986847 -0.1764504456870127 2.1199702100708344 223 201 147
0.4299072619487938 -0.1702480670682419 2.1350810160225855 74 58 23
-0.2838911738549467 -0.1552279910237460 2.1541749729295963 255 222 163
-0.2853299189577409 -0.1362961119221448 2.1530269166127800 251 209 140
-0.2854265986048354 -0.1363804669904075 2.1540212043292044 251 209 140
-0.1940515845799835 -0.1315852755349362 2.2360001632399107 90 60 34
-0.2078084860161734 -0.1254738997276122 2.2158110982973747 229 193 137
0.2706971906445693 -0.0218481564557449 2.2265368844547160 225 190 134
0.3454235913497889 -0.0178036730685947 2.2290618395338817 214 180 128
0.3371465452222419 -0.1127386937328769 2.2155897106567419 76 49 19
0.3245756233418419 -0.0126563173028830 2.2327643434525752 198 160 106
0.4429520460423696 -0.0073758356133301 2.2223864275175322 60 31 5
0.3442392834210674 0.0002064477379331 2.2302079467203235 236 197 143
0.3874469635480767 -0.0990053127328429 2.1683879532792538 209 178 121
0.2703619236634139 0.0023409592363813 2.2279384487263800 234 196 139
0.4819617778580165 0.0162907489710692 2.1697133622567382 162 141 108
0.2034465819362037 0.0070638096010315 2.2429121406587385 201 156 94
0.3428993712060359 0.0206014368796697 2.2283670645224638 223 183 130
0.4478150987282974 0.0277770217436796 2.2255746582766025 168 132 89
-0.1782414322106972 0.0217907365293573 2.2534512924665537 255 229 154
0.4584455772448070 0.0327339342919886 2.2258390585754277 63 35 7
0.1920916867151212 0.0327175954198924 2.2275085610088086 255 215 151
-0.2036724176229409 0.0310252850540463 2.2515083336933910 118 83 45
0.3227070464044631 0.0392558882501303 2.2318111123641877 234 189 126
-0.2955488937425270 -0.2402097293697683 2.1528178170516941 241 196 126
-0.2119514651638716 0.0407864622457374 2.2489803943919364 250 209 150
0.4208583374332150 -0.2398997342446667 2.1742194970433242 199 171 102
0.0179414084714464 0.0441656374979071 2.2551693212427084 255 224 160
0.4698334896380085 0.0520227649228934 2.2246071339106104 50 29 7
0.3474706451484592 -0.0666716454650543 2.2201383592935300 220 186 129
0.3376400774917727 -0.0561618789598011 2.2256667373022845 169 132 79
-0.3321267470942681 -0.1882163875261492 2.1244391686741939 254 222 160
0.4175491962518822 -0.0525326532724626 2.2196267971006161 161 127 83
0.3885741436931035 -0.0984804909100100 2.1674140254577190 214 181 122
0.3155716252280683 -0.0485915149032438 2.2260275031909385 226 193 131
-0.1959988789686590 -0.1141009482740868 2.2583316088654684 85 55 31
-0.3346258086432312 -0.0338056057181016 2.1305622622446352 255 236 176
0.2889621543050643 -0.1042813347512595 2.2209396509428760 165 130 77
0.3476311611822051 -0.0383125048098836 2.2223117487430906 208 171 117
0.4638424673131527 -0.0302348677737013 2.1711327435986312 157 131 94
-0.3190899724297958 -0.0865174374491658 2.1239713422488333 214 170 118
0.3390981261117419 -0.0392015629112873 2.2348426647724429 177 140 82
-0.2483578056995400 -0.0960316443000638 2.1884909887793946 249 203 137
-0.3012166888266745 -0.0202586102910047 2.1601170072091440 253 209 146
0.2877411753002558 0.0552226583067763 2.2286450686965131 240 196 127
0.3207338603963374 0.0569962182361164 2.2330332854775818 240 195 125
0.0113349711158361 0.0528827430978930 2.2598180634368434 115 74 25
0.1543492308167998 0.0567631075314579 2.2382406619044084 204 172 121
-0.2261122175244117 -0.1847363275541688 2.2116587235272731 220 176 113
-0.2654931321254892 0.0656861129987619 2.2058516912710133 217 167 99
0.0003050706399417 0.0613559174419390 2.2642467168857801 214 173 119
-0.3015690865562041 0.0865762684350783 2.1768344520487495 215 168 106
0.3293165928116962 -0.1595655029542254 2.2162119662294191 213 177 109
0.1997034751851244 0.0948836695531313 2.2491115615437867 236 200 138
0.3725412010707655 -0.1511711499370319 2.1787541110601936 77 56 26
0.3862234117159145 -0.1275894549014083 2.1365586026108030 186 156 102
0.2775686019860203 -0.1279311814352071 2.2181644584532578 218 185 120
-0.3224961479946831 0.3178396413062980 2.1316387205665159 32 23 21
0.2961140615423422 -0.0826695559782088 2.2309166329964554 172 132 75
0.3134270772462220 -0.0827602933884244 2.2286479588715031 176 137 76
-0.3332280879919721 0.3277761354727289 2.1301623905535214 42 34 31
-0.3274465596905263 0.3635361686225884 2.4556510605696631 35 26 27
0.2747853739709266 -0.0510421058012351 2.2244627814947706 227 192 132
-0.2758122038842828 -0.0435522438360002 2.1979148421710830 242 198 140
-0.2466633427193680 -0.0440982216694728 2.1996015959182502 255 212 148
0.4985284403147991 -0.0189098892383718 2.1385556767170351 134 114 73
0.3824355296561061 0.0022239286744473 2.1819356624233448 168 139 93
0.2950995482607553 -0.1522202697565134 2.4859732184228465 42 23 8
-0.2458499801562961 -0.0713392680041980 2.1991890026813286 253 208 140
-0.2646628568007838 -0.0532181266877817 2.2005174104087986 231 184 122
0.1907440066440496 0.0000567368162949 2.2378340486180197 254 242 177
0.0371958987404594 -0.0041078695410353 2.2831697920904199 20 7 2
-0.1119086924360941 0.0003125296706338 2.2667065182964525 255 223 146
0.4226361789558654 -0.2041587413133703 2.1294573664790524 158 130 76
0.3330950975778636 0.0130661934929980 2.2333569132801476 88 56 23
0.0987589267970333 0.0106049102312286 2.2690212097060356 255 236 158
0.2716216760676178 0.0209779482006749 2.2280428848080454 217 177 117
0.4130970935490911 -0.1958648249876746 2.1422219273575598 237 209 149
-0.2816471578005792 0.0241613176264536 2.2021398378781702 217 172 123
0.4270372927781565 -0.1897550346684639 2.1302016108910720 137 115 64
-0.3338933164897814 0.0507045033593978 2.1429994642600039 243 199 140
0.4473653736786321 0.0452474638326076 2.2255797502513439 172 135 86
0.3963544398392884 0.0561031087119474 2.2200429357779417 216 179 125
-0.2921506143399846 0.0711803619830944 2.1705898683314242 255 222 166
-0.2415975205239331 0.0653144238209352 2.2345059367059665 205 159 106
-0.2162854506659113 -0.0399904248729291 2.2274948182492693 240 199 133
0.4463133696630088 0.0688311595750652 2.2320217053406717 185 155 108
0.2727595149801133 -0.0304314134121441 2.2282105218662509 235 197 135
-0.2052644049665913 0.0677777747172046 2.2748529353618450 86 64 49
0.1741282646436604 0.0786734804014944 2.2319805261172512 237 204 144
0.2123824914389853 -0.0237644285233057 2.2397991453857680 250 212 155
0.2662776549571185 0.0812515756574650 2.2337508708521057 227 189 133
0.4328353313959503 0.0021464831204673 2.2289343438749980 174 135 82
0.1226904263836453 0.0880397076299811 2.2795305170729367 160 122 87
0.1807897616963210 0.0919034561045156 2.2450092146322884 21 11 3
-0.2350275107235154 -0.0001324483507266 2.2283527758607193 189 141 95
0.4224388359836228 0.0909055289360398 2.2401233526478883 191 161 123
0.4710645095392614 0.0190794699151549 2.1924988117062325 46 29 7
-0.3238390025789246 0.2597072302694358 2.4087399133504097 44 36 31
0.2297542157233492 0.0172994961941436 2.2470634218749255 232 187 124
-0.2169078326354016 0.0249309844559080 2.2365738644250932 246 199 138
-0.2185741401685463 0.0388840989171883 2.2562959860545750 236 193 137
-0.2366108569278798 0.0482522439609321 2.2333443439313307 213 167 111
-0.3287222313013327 0.0761434591032360 2.1360372581002283 244 207 144
0.3094298294938381 0.0780708118589533 2.2412536264812122 236 197 129
0.4367227988277506 0.0822425692405316 2.2351788094903897 19 5 0
-0.3383998241376788 0.1345064743664356 2.1474456438749545 47 37 31
-0.3276404495057140 0.3541107802419028 2.6288531815386249 47 39 35
-0.2720083346584701 0.0074988262924792 2.1945702330550021 229 179 122
0.3740251736617415 0.0592684111471262 2.2042652211995426 34 19 4
0.4667242282119062 0.0674926279065343 2.2308143797441944 168 139 95
0.4107648884979950 -0.1286955315261603 2.1888924754484744 56 36 15
0.3324629106131652 0.0821307572724230 2.2445366987711544 17 8 0
-0.2207261746194167 0.0859922594812165 2.2383070344846807 233 197 147
0.1711554869469431 -0.0960476185357179 2.2321736478541867 51 31 11
-0.3302860442639966 -0.0668926475517823 2.1276875482445350 255 221 161
-0.2843403078413200 -0.0566493772036559 2.1627263385564701 255 218 154
0.3709341762039989 -0.0170279821085197 2.1956698440464675 62 38 5
-0.3263724053830429 -0.0618325784547568 2.1201150097630461 240 203 138
-0.2879504924483178 -0.0104872619311790 2.1659032083715464 255 222 158
-0.3359396581275841 -0.3132777477703484 1.9987041008273847 53 45 36
0.4387874234772164 -0.0473580395846019 2.1968094255500303 52 34 14
0.4051046042896388 0.0787046608633728 2.2382101343513927 193 155 103
0.2923614554502815 0.1000050684551946 2.2869303017355551 7 1 0
0.4240754454199010 -0.2040790919597622 2.1356747314969891 151 127 69
0.4219550360673074 0.0518142786819231 2.2362818897219272 197 160 108
0.3137422870800407 0.0495143384346868 2.2291941966847033 232 186 118
0.1453275208390519 0.1055501276242430 2.2559907548911382 4 1 0
0.2058450479058722 0.0495904480359029 2.2566107412906171 235 188 126
-0.1674207936079583 0.1067209826380914 2.3028574761028686 3 2 0
-0.2680635600594372 -0.0950652961069770 2.3433356200475783 207 163 96
-0.3189330578798986 -0.2609584317763582 2.1122501937873381 255 221 161
-0.1602641155705090 -0.0007414498657141 2.2668096343209867 255 216 146
0.0685074333811673 -0.1071887746483254 2.2445152472309138 205 179 129
-0.3172569004776571 -0.2516514750067921 2.1134983135328804 255 223 160
0.4914704623383319 0.0070992974940244 2.1719007890580602 65 51 37
0.3747272934904093 0.0077598545279828 2.1809299468935417 123 97 59
-0.2552212358488684 -0.2242658761694897 2.1716448148045120 228 187 114
0.2069202526645052 -0.1016008552770594 2.2326153214184514 209 170 104
-0.0821641006503248 0.0056284220925440 2.2662324721584874 247 202 129
-0.0820234565574662 0.0055801513860841 2.2729572531591518 247 202 129
0.4087573270440120 -0.1645372620974487 2.1544762742829233 148 123 86
-0.2431371465415377 -0.2025151874675331 2.1732786278345753 223 181 110
-0.2772900903047437 -0.1988718034441271 2.1544870882518534 197 159 96
0.4241870657860496 0.0141597773687336 2.2240654295007314 143 109 59
-0.2938757404430468 -0.1886988250616101 2.1470451344915138 248 204 138
0.1593979155089868 -0.1617156454657457 2.2467312643560993 231 200 138
-0.3316625073323867 -0.1816615680755321 2.3931663987766925 241 202 143
0.1962869459982970 -0.1612097853558785 2.2154671713709266 255 223 148
-0.0794068052086206 -0.1584206899614654 2.2308983750520808 255 224 151
0.1099988510216446 0.1652298887290314 3.3910324476355478 255 247 171
0.1800277273146180 -0.1539513698572525 2.2189274431155588 242 207 138
0.1332618360444135 -0.1538040278645032 2.2405279667487759 210 167 108
0.3634418971746276 -0.1452860249014764 2.1884910962385127 164 135 92
0.2805054005336474 -0.1498186535588452 2.2079815790516473 231 194 125
-0.2412490508629913 -0.1455399017160738 2.1787697136917226 240 200 134
-0.3002779642361626 -0.0323854435419168 2.1603385587804347 253 207 146
0.1055992609452633 -0.1494939982094960 2.2330666096469729 255 217 147
0.2641325182904377 -0.1438330659082972 2.2111024562794714 157 125 69
0.2070531891570924 -0.1437398456884210 2.2031379529195543 236 197 128
0.1369600195200605 0.0350908822939344 2.2477819424973702 208 163 101
0.3735196054065377 -0.1334806383623034 2.1652190076560549 98 76 41
0.1530565381860770 -0.1366417285513508 2.2283987433429946 227 191 133
0.2642973133953538 -0.0811785531155907 2.2265718066653934 98 66 17
-0.2537520037326499 -0.1375751013698082 2.1827896865830678 215 173 112
0.2302595280124801 -0.1227851607604381 2.2215798520002026 205 163 100
0.2172084748103401 -0.1230779418727062 2.2244254012530060 215 174 106
0.2049328486589166 0.0378712486424740 2.2480470067824978 203 157 89
-0.2579383802875044 -0.1177074494020193 2.1851745443687154 218 172 108
0.2949891473448632 -0.0797906404765653 2.2313177835488363 179 136 78
-0.2290767034622586 0.0388997592691495 2.2323632011493264 246 195 129
0.1123696659203671 0.0411630939871692 2.2510423030808520 190 143 83
0.2717063226001170 -0.0976368693221122 2.2379504089991586 113 79 47
-0.2288492274924454 -0.0940273808316343 2.2175650976943091 196 151 91
0.3080664452565845 -0.0918594977662312 2.2286949677043233 187 149 93
0.3329246194885828 -0.0898165522413563 2.2294059905751578 166 136 90
-0.2548861835703671 -0.0718744180490957 2.1914409068654348 243 195 124
0.2015041619209144 -0.0878261425699654 2.2336059056613289 239 200 129
0.3840911844456225 -0.0851853985054890 2.1709487674305223 174 145 98
0.3393740392480108 -0.0629319448730896 2.2265567429697701 171 140 83
0.3235383809839847 -0.0853256612129924 2.2316663978933700 149 112 58
0.1991310678348159 0.0577699005505457 2.2483069979404933 225 184 118
0.4115402573459345 -0.0706569937009076 2.2098577246170863 152 118 76
0.3563630709391399 -0.1237214369405128 2.2072439454219777 86 59 18
-0.2956284393084460 0.0580654166095137 2.1677571640398572 238 192 133
-0.2369187745306183 0.0605946720375959 2.2351873514349689 220 170 113
-0.2322305990755299 0.0629258447272007 2.2721723233020255 232 182 116
0.3741055681422360 -0.0641325389962318 2.1824705483578155 95 71 38
0.3501902149479230 0.0684524520909548 2.2340995468821467 137 99 57
0.2331650576627340 0.0720111115193121 2.2466125489386699 201 161 100
-0.2765265364419187 -0.0655604084234575 2.1889405457663100 219 180 124
0.3973007282048486 0.0735561076864700 2.2315754441231004 177 141 84
-0.2093626510518766 -0.0591904907292159 2.2228736678703989 228 194 143
-0.2409938871434542 -0.0565944359781878 2.2207610454844708 205 169 111
-0.2324950093379814 -0.0563818887343640 2.2224235397666861 179 139 91
-0.2696215357424168 -0.0373732068542930 2.1945980455106580 240 195 134
0.4580396408656247 -0.0344861711242278 2.1805038871077382 121 100 61
0.2490149854223843 -0.0182313310868347 2.2396000582587607 211 167 111
0.2080232956788110 -0.1208152782651725 2.2275787942908027 244 203 134
0.2244174504949598 -0.0161900352890619 2.2415965390603421 240 196 127
-0.2787933481314137 -0.0140155417860798 2.1950355481690251 255 223 162
0.3531768954292734 -0.0075917633035345 2.2298801834055677 105 73 30
0.1380965299526328 -0.1173730220725814 2.2321135979133810 228 195 135
0.4313009090364578 -0.2314064534774995 2.1458154155439280 163 137 95
0.4025372672432158 0.0013012848777394 2.2215094320178630 145 110 61
0.4837024091546783 0.0032483831151052 2.1742633364472783 71 48 25
0.3027422533969156 0.0022136359679523 2.2379231855255148 213 171 109
0.4270622123710336 -0.2236927990881755 2.1384784823198033 150 122 64
-0.2789835419779373 0.0040786445791984 2.1994756080196538 213 170 122
-0.3024888504068161 -0.1146554809990634 2.1566729609755391 255 212 151
-0.2466723799699426 0.0044315399105740 2.2021488306196377 208 163 114
-0.0887992315578714 0.0088389215460899 2.2643695910713757 255 246 170
0.4009565883667727 -0.2106546877010744 2.1504223259484729 205 174 114
-0.2377598185607936 0.0095417828827593 2.2302437888388642 205 161 110
-0.1959391702915361 0.0099306272833253 2.2567457554409254 205 154 91
-0.0397022759256386 -0.1134979710418163 2.2425267111824869 224 194 140
-0.0075701176947093 -0.1112025462889343 2.2443999315068539 197 161 103
-0.0076290647531401 -0.1112024021346270 2.2436984503966464 197 161 103
-0.2794797232977689 -0.1932157124504276 2.1468224679434740 255 229 165
-0.2070036519228272 -0.1104978154597263 2.2484991396220138 229 196 147
0.1656976413873735 0.0183315367049367 2.2450790644633609 169 131 73
-0.3025581291442316 -0.1876806703611331 2.1443472639189403 251 212 149
0.4334153900736624 0.0235181259062267 2.2275698686954160 172 138 87
0.4060132886871200 -0.1002935333801435 2.2057584840698361 82 52 12
0.2416689123478107 0.0310533176239115 2.2428269064870681 180 137 81
0.2830185057535012 -0.1006249918956272 2.2174454277375295 185 147 100
-0.0214038687629763 -0.1040156516832370 2.2672583441599361 82 55 23
0.2351966059104643 0.0361267669798654 2.2460869125155827 227 184 125
-0.2435038055204237 0.0367298514743764 2.2218832143621530 211 166 116
0.2420419006249888 -0.0955506870114994 2.2295192971459747 216 174 109
0.3573079999510774 -0.0867393974317237 2.2122374793305517 117 83 38
-0.1622013063639092 -0.1654170047821260 2.2292283916821409 255 215 137
0.3394785167711610 -0.0766903434338559 2.2295657288057091 67 37 2
0.4797107471897556 0.0588475814135220 2.2283197461492761 142 117 89
0.1662550498194065 -0.1549209577113590 2.2245481683812129 219 180 113
0.1488397631422949 -0.1544539494029172 2.2348963039945042 168 131 77
0.2057592073962845 0.0605613450660523 2.2469709850775894 242 200 135
0.1246798953214784 -0.1528494480831394 2.2416988508006521 212 172 110
-0.2686827067953310 0.0581313854930728 2.2092323230036497 251 199 127
0.1318815233662348 0.0665199989979781 2.2554924238485725 179 146 100
0.0520225700981933 -0.1478048753381129 2.2302325885061078 213 165 94
0.3708544444204172 0.0770815417818756 2.2255893037890937 185 159 116
-0.0915003586072868 0.0759324441355184 2.2928291292876239 77 60 39
0.1280546545694188 0.0787097721064552 2.2708433116760500 48 32 14
0.0699464869705734 -0.1471394599813123 2.2309958491430191 226 186 115
-0.2467388903343856 -0.0614302944159238 2.1930335893886395 255 217 152
0.2185112205185810 -0.1440279103924704 2.2196532638629565 226 186 115
-0.2460844584062313 0.0835446112078846 2.2342130295089873 184 145 100
-0.0919207431007692 -0.1447927545166220 2.2272232760991599 221 181 120
0.1110519942028189 -0.1425785838608456 2.2300989752180445 179 135 81
-0.2680457767415310 0.1024593863697660 2.2093539518437333 43 32 25
0.2898253153500369 -0.1400179334389094 2.2125931494695297 214 178 113
0.0487120305474890 -0.1409873688062682 2.2277629591532877 255 232 154
-0.3366293430793627 -0.5121210590038593 2.2367401411727497 42 35 29
-0.3246531813658289 -0.1284352384122897 2.1223493408838663 241 203 134
-0.3167689298483297 -0.3940632137594796 2.5218616419652027 29 27 23
0.3571075798466570 -0.0526031470394562 2.2220445713136354 116 85 39
0.2625410513842973 -0.1209861192896019 2.2117866270485216 107 80 40
0.5457459046605924 -0.0506976119436955 2.2475115923838138 136 109 70
0.2355312681625051 -0.1155155178242847 2.2234770716222978 211 172 103
0.2942149069250170 -0.0490145980302973 2.2234397747315722 235 198 133
0.3572992703728919 -0.1122828395388779 2.2088452342756040 118 87 41
0.4037580826039525 -0.1112173564672070 2.2047857466988745 104 76 34
0.4037474702433238 -0.0386217376329509 2.2139209798243531 163 124 69
0.3077255651298447 -0.1091057574762914 2.2226587562304063 175 139 83
0.2563526356614426 -0.1088272627455952 2.2268839693115048 177 146 99
0.5110763348640954 -0.0219504900034583 2.1414797169868631 54 37 4
0.1761303122119729 0.0015023748825166 2.2377515433347126 88 59 28
0.2976733986098090 0.0036953351618980 2.2384300073048249 208 166 109
0.4920688450695663 0.0143629042906972 2.1730779324206240 16 1 0
-0.0277340637193927 0.0174025559764590 2.2613191056686106 251 202 130
0.0260376702604662 0.0202272113996174 2.2577873936187798 249 199 131
0.0845488828508975 0.0222610748076462 2.2583895619469261 231 177 116
0.1658279723264669 0.0255787718654767 2.2357383791929557 192 149 91
0.2523320535496442 0.0283671617446630 2.2362596663963621 228 186 126
0.2658297875077704 0.0298357739884540 2.2286614884821954 233 191 132
-0.2040908899235528 0.0309151681514317 2.2529764727524930 166 124 74
